1755.30004882812 1860.14001464844 1883.68994140625 2031.09997558594 1984.61999511719 2004.5400390625 2124.05004882812 2119.15991210938 1962.13000488281 1714.9599609375 1631.88000488281 1631.88000488281 1631.88000488281 1631.88000488281 1631.88000488281 1679.66003417969 1708.93994140625 1708.93994140625 1807.33996582031 1864.7900390625 1892.94995117188 2115.830078125 2250.36010742188 2251.73999023438 2220.81005859375 2097.68994140625 2033.78002929688 2026.40002441406 2011.28002929688 2005.25 2000.57995605469 1994.03002929688 1988.83996582031 1997.2099609375 2113.2099609375 2234.17993164062 2348.080078125 2257.2900390625 2252.56005859375 2394.96997070312 2218.94995117188 2086.53002929688 2067.65991210938 2172.34008789062 2333.830078125 2433.919921875 2374.46997070312 2337.830078125 2167.57006835938 2024.71997070312 2001.66003417969 1989.63000488281 1988.64001464844 2028.82995605469 2088.59008789062 2061.69995117188 2072.419921875 2067.73999023438 2072.06005859375 2079.919921875 2108.60009765625 2147.51000976562 2170.13989257812 2172.43994140625 2193.68994140625 2202.28002929688 2221.22998046875 2251.580078125 2304.42993164062 2416.93994140625 2490.80004882812 2591.419921875 2674.21997070312 2460.23999023438 2469.82006835938 2462.05004882812 2352.31005859375 2545.97998046875 2487.03002929688 2248.88989257812 2255.40991210938 2427.92993164062 2611.82006835938 2496.43994140625 2290.56005859375 2254.11010742188 2458.080078125 2546.94995117188 2366.69995117188 2309.42993164062 2267.7099609375 2242.11010742188 2307.77001953125 2539.169921875 2518.3701171875 2340.13989257812 2322.4599609375 2380.84008789062 2291.5 2283.06005859375 2319.28002929688 2361.5 2470.3701171875 2487.90991210938 2485.68994140625 2261.72998046875 2186.44995117188 2155.89990234375 2132.46997070312 2168.07006835938 2305.69995117188 2315.68994140625 2282.7900390625 2055.46997070312 2026.90002441406 1997.77001953125 1885.30004882812 1862.93005371094 1812.35998535156 1816.76000976562 1807.06005859375 1789.43994140625 1705.56994628906 1624.98999023438 1572.15002441406 1535.22998046875 1511.83996582031 1493.44995117188 1483.75 1482.61999511719 1575.42004394531 1647.30004882812 1722 1849.27001953125 2041.18994140625 2256.28002929688 2357.330078125 2176.330078125 2020.73999023438 1890.38000488281 1801.2099609375 1721.07995605469 1675.18005371094 1644.19995117188 1619.90002441406 1524.41003417969 1507.06005859375 1500.97998046875 1503.68994140625 1506.28002929688 1521.84997558594 1548.5 1577.59997558594 1615.73999023438 1656.21997070312 1693.46997070312 1719.03002929688 1754.31994628906 1771.35998535156 1922.75 2212.53002929688 2423.09008789062 2272.42993164062 2111.30004882812 2017.06005859375 2225.1298828125 2640.17993164062 2650.48999023438 2520.80004882812 2635.14990234375 2702.15991210938 2547.10009765625 2777.6201171875 2668.52001953125 2567.25 2493.0400390625 2367.5 2208.90991210938 2162.32006835938 2107.10009765625 2055.080078125 2023.28002929688
1839.51000976562 1960.7900390625 1941.68994140625 2084.77001953125 2157.19995117188 2169.5400390625 2130.6201171875 2161.67993164062 1989.09997558594 1687.17004394531 1631.88000488281 1631.88000488281 1631.88000488281 1631.88000488281 1631.88000488281 1656.5 1656.5 1799.33996582031 1793.84997558594 1833.51000976562 1909.19995117188 2002.34997558594 2167.64990234375 2308.1298828125 2167.88989257812 2084.80004882812 2014.86999511719 2014.86999511719 2011.08996582031 2005.25 2001.22998046875 2001.78002929688 2012.15002441406 2022.25 2097.19995117188 2312.919921875 2425.63989257812 2445.61010742188 2387 2428.30004882812 2343.85009765625 2161.419921875 2360.080078125 2197.51000976562 2158.4599609375 2188.82006835938 2233.13989257812 2162.72998046875 2033.83996582031 2011.88000488281 2010.13000488281 2026.84997558594 1996.03002929688 2009.21997070312 2087.32006835938 2041.06994628906 2051.36010742188 2061.05004882812 2072.06005859375 2089.02001953125 2190.78002929688 2243.669921875 2202.919921875 2130.7900390625 2158.21997070312 2218.82006835938 2274.23999023438 2316.86010742188 2465.17993164062 2477.11010742188 2535.65991210938 2603.8798828125 2552.830078125 2394.7099609375 2291.82006835938 2154.71997070312 2173.15991210938 2581.4599609375 2452.19995117188 2212.4599609375 2212.4599609375 2402.919921875 2543.06005859375 2529.06005859375 2324.52001953125 2197.8701171875 2383.55004882812 2567.39990234375 2406.5400390625 2354.27001953125 2319.5400390625 2210.97998046875 2286.94995117188 2647.52001953125 2524.61010742188 2359.4599609375 2286.13989257812 2204.11010742188 2226.43994140625 2284.580078125 2319.28002929688 2319.28002929688 2367.27001953125 2504.94995117188 2536.01000976562 2441.0400390625 2244.6298828125 2211.5 2278.10009765625 2245.81005859375 2196.63989257812 2157.919921875 2129.1201171875 2108.75 2005.89001464844 1931.10998535156 1931.10998535156 1862.93005371094 2038.48999023438 1992.58996582031 1908.01000976562 1863.64001464844 1726.38000488281 1636.09997558594 1575.18994140625 1534.2900390625 1509.89001464844 1494.27001953125 1489.16003417969 1486.52001953125 1568.33996582031 1682.93994140625 1842.75 1982.89001464844 2147.77001953125 2345.0400390625 2427.21997070312 2261.169921875 2081.92993164062 1985.44995117188 1847.40002441406 1756.58996582031 1696.92004394531 1690.51000976562 1759.32995605469 1557.96997070312 1533.19995117188 1521.14001464844 1512.11999511719 1513.4599609375 1519.58996582031 1541.52001953125 1574.64001464844 1613.56005859375 1640.43005371094 1674.56994628906 1707.18994140625 1724.2900390625 1730.63000488281 1801.90002441406 1966.14001464844 2243.82006835938 1963.21997070312 1963.21997070312 2105.5400390625 2231.81005859375 2477.5 2839.53002929688 2721.53002929688 2780.97998046875 2493.42993164062 2476.97998046875 2883.7900390625 2714.68994140625 2615.5400390625 2475.65991210938 2377.05004882812 2189.27001953125 2178.64990234375 2203.88989257812 2173.94995117188 2163.75
1754.51000976562 1912.94995117188 2064.53002929688 2189.84008789062 2232.76000976562 2058 2034.07995605469 2034.07995605469 1940.02001953125 1694.46997070312 1631.88000488281 1631.88000488281 1631.88000488281 1631.88000488281 1630.67004394531 1614.25 1683.06005859375 1757.9599609375 1793.84997558594 1829.26000976562 1917.06005859375 2135.5400390625 2271.330078125 2244.84008789062 2119.38989257812 2025.43005371094 2025.43005371094 2020.88000488281 2033.23999023438 2033.23999023438 2036.85998535156 2025.56005859375 2034.39001464844 2048.35009765625 2066.52001953125 2096.85009765625 2244.5400390625 2324.2900390625 2297.93994140625 2336.92993164062 2345.57006835938 2300.59008789062 2246.75 2213.57006835938 2128.06005859375 2095.23999023438 2048.73999023438 2032.60998535156 2025.26000976562 2025.26000976562 2163.73999023438 2081.11010742188 2004.90002441406 2002.19995117188 2020.5400390625 2031.17004394531 2038.11999511719 2050.17993164062 2092.92993164062 2167.65991210938 2285.81005859375 2144.02001953125 2104.3701171875 2115.56005859375 2177.36010742188 2180.919921875 2276.75 2343.18994140625 2399.55004882812 2467.75 2538.4599609375 2559.34008789062 2602.830078125 2542.6201171875 2306.32006835938 2141.8798828125 2114.080078125 2329.23999023438 2422.14990234375 2241.80004882812 2160.28002929688 2223.07006835938 2332.080078125 2515.30004882812 2384.30004882812 2159.17993164062 2355.90991210938 2593.23999023438 2480.13989257812 2416.09008789062 2418.96997070312 2213.53002929688 2162 2318.59008789062 2447.8701171875 2295.2099609375 2168.25 2176.28002929688 2281.330078125 2422.52001953125 2467.60009765625 2336.77001953125 2368.7900390625 2564 2590.43994140625 2431.61010742188 2319.09008789062 2393.07006835938 2232.31005859375 2220.92993164062 2220.92993164062 2284.169921875 2215.3701171875 2314.14990234375 2169.48999023438 2013.18005371094 1988.22998046875 2037.55004882812 1950.81994628906 1882.64001464844 1830.44995117188 1761.72998046875 1792 1733.5400390625 1580.64001464844 1535.98999023438 1513.43005371094 1499.01000976562 1492.42004394531 1490.93994140625 1670.90002441406 1749.7099609375 1863.16003417969 1961.71997070312 2150.60009765625 2275.1298828125 2368.69995117188 2303.93994140625 2065.13989257812 1964.97998046875 1918.68994140625 1843.75 1756.59997558594 1764.08996582031 1749.60998535156 1616.78002929688 1568.08996582031 1548.81005859375 1524.85998535156 1519.33996582031 1524.33996582031 1543.72998046875 1568.9599609375 1601.7099609375 1628.27001953125 1651.31005859375 1677.02001953125 1685.16003417969 1706.13000488281 1740.57995605469 1805.90002441406 1855.75 1935.05004882812 2182.27001953125 2326.46997070312 2502.42993164062 2525.10009765625 2904.93994140625 2705.40991210938 2471.43994140625 2347.93994140625 2489.580078125 2741.6298828125 2778.93994140625 2600.1201171875 2500.1298828125 2235.57006835938 2212.67993164062 2383.26000976562 2332.11010742188 2419.57006835938 2323.35009765625
1963.84997558594 2181.34008789062 2077.4599609375 2160.169921875 2108.28002929688 1972.38000488281 1943.60998535156 1957.31005859375 1910.28002929688 1678.66003417969 1647.76000976562 1638.65002441406 1673.63000488281 1640.67004394531 1599.27001953125 1676 1759.06005859375 1832.7099609375 1795.18005371094 1823.06994628906 1925.75 2076.06005859375 2343.03002929688 2218.31005859375 2084.93994140625 2025.43005371094 2025.43005371094 2025.43005371094 2056.85009765625 2049.94995117188 2054.81005859375 2071.40991210938 2151.67993164062 2128.48999023438 2176.40991210938 2116.40991210938 2258.46997070312 2263.01000976562 2235.18994140625 2224.8798828125 2355.2099609375 2410.52001953125 2297.92993164062 2428.4599609375 2279.38989257812 2329.63989257812 2049.02001953125 2028.18994140625 2029.7900390625 2226.09008789062 2087.68994140625 2034.94995117188 2016.13000488281 2011.81994628906 2014.47998046875 2023.47998046875 2032.71997070312 2048.85009765625 2072.15991210938 2188.85009765625 2155.42993164062 2095.14990234375 2099.919921875 2218.98999023438 2293.419921875 2206.18994140625 2280.78002929688 2355.93994140625 2425.919921875 2499.0400390625 2473.81005859375 2440.2099609375 2522.8798828125 2482.580078125 2435.26000976562 2422.78002929688 2094.15991210938 2211.26000976562 2275.55004882812 2350.48999023438 2140.64990234375 2212.6201171875 2398.34008789062 2447.06005859375 2181.55004882812 2130.28002929688 2207.25 2416.39990234375 2561.78002929688 2628.05004882812 2623.65991210938 2399.6298828125 2112.57006835938 2134.56005859375 2222.65991210938 2156.080078125 2161.98999023438 2352.47998046875 2286.18994140625 2553.60009765625 2515.07006835938 2471.06005859375 2425.18994140625 2600.6201171875 2595.35009765625 2544.3798828125 2523.25 2296.69995117188 2254.02001953125 2389.53002929688 2313.2099609375 2562.330078125 2502.10009765625 2392.98999023438 2260.92993164062 2133.34008789062 2004.21997070312 1948.19995117188 1852.07995605469 1807.0400390625 1740.71997070312 1701.2900390625 1662.85998535156 1623.25 1573.89001464844 1547.06994628906 1519.92004394531 1500.85998535156 1494.78002929688 1495.85998535156 1548.22998046875 1703.17004394531 1910.9599609375 1920.40002441406 1994.13000488281 2116.92993164062 2313.22998046875 2271.6298828125 2186.48999023438 2113.75 2039.16003417969 1940.09997558594 1821.96997070312 1755.39001464844 1695.07995605469 1643.18005371094 1600.16003417969 1567.11999511719 1538.03002929688 1530.69995117188 1532.06005859375 1536.94995117188 1551.43994140625 1576.03002929688 1603.01000976562 1623.10998535156 1646.44995117188 1673.25 1705.31994628906 1743.67004394531 1776.09997558594 1847.76000976562 2132.60009765625 2383.59008789062 2597.32006835938 2722.5400390625 2704.1298828125 2904.90991210938 2701.2900390625 2301.07006835938 2301.07006835938 2553.39990234375 2872.169921875 2657.6298828125 2405.28002929688 2296.59008789062 2258.48999023438 2440.86010742188 2588.01000976562 2409.580078125 2551.830078125 2488.38989257812
2039.2900390625 2015.75 2042.10998535156 2074.92993164062 2003.51000976562 1961.9599609375 1917.31994628906 1804.5400390625 1713.48999023438 1664.98999023438 1664.81005859375 1691.80004882812 1723.52001953125 1585.09997558594 1599.27001953125 1683.42004394531 1786.66003417969 1773.44995117188 1780.38000488281 1809.01000976562 1909.86999511719 2200.43994140625 2331.76000976562 2187.8798828125 2035.53002929688 2025.43005371094 2025.43005371094 2082.2900390625 2115.67993164062 2123.25 2062.5400390625 2093.57006835938 2165.90991210938 2231.330078125 2293.30004882812 2180.36010742188 2237.55004882812 2186.4599609375 2214.13989257812 2224.8798828125 2342.65991210938 2506.90991210938 2391.61010742188 2292.5400390625 2174.35009765625 2110.51000976562 2082.1298828125 2173.59008789062 2296.01000976562 2153.60009765625 2059.1298828125 2045.11999511719 2030.43994140625 2020.33996582031 2016.9599609375 2024.44995117188 2032.55004882812 2048.6201171875 2068.73999023438 2139.61010742188 2078.05004882812 2085.56005859375 2310.44995117188 2410.55004882812 2360.09008789062 2299.25 2326.86010742188 2467.7900390625 2495.81005859375 2475.02001953125 2397.2900390625 2268.330078125 2294.4599609375 2333.88989257812 2374.06005859375 2311.10009765625 2058.94995117188 2058.35009765625 2097.36010742188 2339.38989257812 2113.27001953125 2148.71997070312 2326.97998046875 2329.53002929688 2130.28002929688 2130.28002929688 2318.06005859375 2505.580078125 2496.48999023438 2414.47998046875 2587.67993164062 2431.23999023438 2119.14990234375 2092.3701171875 2106.42993164062 2137.61010742188 2272.0400390625 2463.78002929688 2403.65991210938 2433.30004882812 2663.85009765625 2553.13989257812 2435.42993164062 2497.57006835938 2521.05004882812 2406.94995117188 2341.01000976562 2304.86010742188 2341.09008789062 2496.43994140625 2439.96997070312 2615.9599609375 2714.06005859375 2610.56005859375 2304.57006835938 2107.63989257812 1949.27001953125 1852.60998535156 1816.89001464844 1860.56994628906 1808.30004882812 1719.75 1687.91003417969 1624.89001464844 1581.51000976562 1546.43005371094 1514.27001953125 1500.5400390625 1495.71997070312 1501.44995117188 1535.88000488281 1629.40002441406 1761.58996582031 1830.63000488281 1970.40002441406 2092.94995117188 2229.44995117188 2353.669921875 2290.1298828125 2189.39990234375 2095.81005859375 1989.11999511719 1828.68994140625 1764.58996582031 1694.56005859375 1649.90002441406 1611.16003417969 1574.58996582031 1554.21997070312 1541.97998046875 1537.73999023438 1544.40002441406 1548.03002929688 1562.65002441406 1588.68994140625 1609.64001464844 1638.86999511719 1668.66003417969 1698.30004882812 1731.46997070312 1753.69995117188 1810.15002441406 2209.8798828125 2612.2099609375 2636.330078125 2826.40991210938 2916.52001953125 2577.9599609375 2316.5400390625 2228.44995117188 2347.75 2729.94995117188 2852.06005859375 2505.61010742188 2405.28002929688 2320.85009765625 2372.23999023438 2722.36010742188 2660.55004882812 2547.13989257812 2719.5400390625 2467.23999023438
1917.90002441406 2042.35998535156 2105.22998046875 2127.78002929688 2114.75 2155.69995117188 2158.6201171875 1968.90002441406 1741.33996582031 1704.69995117188 1752.28002929688 1702.84997558594 1621.68005371094 1585.09997558594 1792.89001464844 1800.11999511719 1723.98999023438 1800.58996582031 1780.38000488281 1795.61999511719 1887.57995605469 2053.57006835938 2231.86010742188 2092.22998046875 2025.93005371094 2025.43005371094 2026.22998046875 2147.18994140625 2158.82006835938 2143.64990234375 2077.30004882812 2164.25 2177.3798828125 2181.92993164062 2219.97998046875 2320.71997070312 2332.44995117188 2205.93994140625 2116.88989257812 2108.69995117188 2183.6298828125 2245.81005859375 2198.17993164062 2172.03002929688 2111.27001953125 2111.27001953125 2127.56005859375 2310.32006835938 2402.56005859375 2183.82006835938 2113.97998046875 2079.28002929688 2069.64990234375 2033.5400390625 2020.98999023438 2025.31994628906 2033.68005371094 2049.07006835938 2071.97998046875 2071.23999023438 2072.6201171875 2280.43994140625 2265.5400390625 2400.59008789062 2334.7099609375 2315.1201171875 2416.3701171875 2419.96997070312 2533.76000976562 2496.52001953125 2435 2274.56005859375 2196.19995117188 2165.73999023438 2119.71997070312 2095.4599609375 2053.419921875 2029.68005371094 2012.83996582031 2067.10009765625 2079.1201171875 2122.98999023438 2359.39990234375 2248.419921875 2054.19995117188 2211.96997070312 2495.6298828125 2590.53002929688 2502.39990234375 2284.21997070312 2240.6298828125 2357.77001953125 2285.17993164062 2085.419921875 2090.22998046875 2330.30004882812 2307.88989257812 2706.03002929688 2540.39990234375 2482.080078125 2693.3701171875 2605.07006835938 2372.39990234375 2351 2580.75 2588.56005859375 2526.8798828125 2469.34008789062 2454.3701171875 2568.8798828125 2561.2900390625 2685.47998046875 2726.75 2508.25 2305.11010742188 2116.169921875 1946.63000488281 1899.13000488281 2072.52001953125 1972.81994628906 1849.67004394531 1877.84997558594 1760.06005859375 1646.66003417969 1573.65002441406 1522.27001953125 1512.56994628906 1500.5400390625 1500.69995117188 1510.41003417969 1545.43994140625 1620.61999511719 1678.55004882812 1786.43994140625 1855.22998046875 2044.81005859375 2158.64990234375 2314.47998046875 2241.51000976562 2107.34008789062 2117.98999023438 1930.63000488281 1787.51000976562 1738.60998535156 1760.5400390625 1687.05004882812 1624.35998535156 1583.59997558594 1575.18994140625 1558.78002929688 1550.5 1552.36999511719 1555.15002441406 1561.72998046875 1578.52001953125 1598.36999511719 1626.30004882812 1651.86999511719 1677.43005371094 1704.90002441406 1720.68005371094 1802.56005859375 2115.57006835938 2298.48999023438 2524.75 2699.60009765625 2678.73999023438 2275.09008789062 2168.82006835938 2218.2099609375 2555.10009765625 2698.61010742188 2739.10009765625 2486.26000976562 2545.97998046875 2375.39990234375 2409.25 2811.1298828125 2743.82006835938 2779.72998046875 2697.23999023438 2570.5
2115.57006835938 2217.10009765625 2098.919921875 2114.63989257812 2077.94995117188 2011.91003417969 1915.2099609375 1808.48999023438 1772.59997558594 1756.73999023438 1766.81005859375 1750.53002929688 1665.26000976562 1567.41003417969 1575.15002441406 1668.43005371094 1794.08996582031 1815.60998535156 1788.18994140625 1807.15002441406 1863 1929.58996582031 2189.85009765625 2086.23999023438 2030.34997558594 2025.43005371094 2049.07006835938 2121.94995117188 2262.53002929688 2219.0400390625 2125.7099609375 2165.1298828125 2225.80004882812 2351.75 2368.31005859375 2334.39990234375 2280.32006835938 2213.6298828125 2121.080078125 2006.71997070312 2076.59008789062 2127.57006835938 2112.56005859375 2114.89990234375 2111.27001953125 2111.27001953125 2131.44995117188 2295.56005859375 2427.09008789062 2261.71997070312 2107.6298828125 2106.11010742188 2090.89990234375 2048.90991210938 2030.17004394531 2026.7900390625 2046 2064.4599609375 2094.32006835938 2063.65991210938 2082.26000976562 2140.30004882812 2249.84008789062 2306.88989257812 2362.5 2369.47998046875 2431.03002929688 2521.17993164062 2495.88989257812 2371.5400390625 2281.98999023438 2359.38989257812 2347.36010742188 2242.580078125 2157.919921875 2205.03002929688 2129.44995117188 2241.94995117188 2006.82995605469 1997.0400390625 2016.63000488281 2194.9599609375 2372.28002929688 2203.419921875 2054.19995117188 2137.57006835938 2424.26000976562 2271.69995117188 2267.80004882812 2240.89990234375 2123.98999023438 2074.28002929688 2074.28002929688 2080.39990234375 2120.4599609375 2353.40991210938 2455.18994140625 2659.63989257812 2546.64990234375 2484 2732.86010742188 2507.28002929688 2327.18994140625 2282.830078125 2499.72998046875 2427.67993164062 2614.53002929688 2738.30004882812 2550.85009765625 2594.42993164062 2658.03002929688 2434.77001953125 2376.32006835938 2395.93994140625 2195.88989257812 2031.59997558594 1959.72998046875 1988.43005371094 2132.22998046875 1948.93994140625 1962.76000976562 1882.02001953125 1797.58996582031 1665.32995605469 1560.09997558594 1520.26000976562 1508.68994140625 1508.10998535156 1510.57995605469 1523.80004882812 1557.44995117188 1611.30004882812 1668 1733.0400390625 1815.61999511719 1994.60998535156 2160.55004882812 2219.40991210938 2185.01000976562 2032.31005859375 1968.02001953125 1862.38000488281 1833.14001464844 1859.18005371094 1805.06994628906 1701.68994140625 1650.47998046875 1610.64001464844 1600.59997558594 1590.23999023438 1576.01000976562 1562.94995117188 1563.43994140625 1568.81994628906 1575.60998535156 1589.67004394531 1611.40002441406 1631.28002929688 1653.71997070312 1671.92004394531 1687.35998535156 1790.47998046875 1912.11999511719 2282.88989257812 2563.53002929688 2793.85009765625 2417.25 2098.30004882812 2156.69995117188 2419.67993164062 2370.11010742188 2701.97998046875 2802.6201171875 2611.32006835938 2485.8701171875 2428.84008789062 2608.47998046875 3015.71997070312 2805.3701171875 2708.32006835938 2540 2533.69995117188
2000.83996582031 2015.96997070312 2052.75 2197.92993164062 2184.06005859375 1987.22998046875 1786.34997558594 1768.97998046875 1745.03002929688 1648.26000976562 1650.5 1530.21997070312 1574.47998046875 1512.17004394531 1667.33996582031 1871 1838.72998046875 1868.14001464844 1840.30004882812 1829.21997070312 1907.28002929688 1984.39001464844 2140.81005859375 2169.61010742188 2057.78002929688 2034.43994140625 2087.59008789062 2163.01000976562 2335.6201171875 2273.8798828125 2230.9599609375 2209.65991210938 2332.419921875 2328.81005859375 2242.38989257812 2258.80004882812 2243.63989257812 2273.9599609375 1945.96997070312 1928.2099609375 2074.169921875 2091.5400390625 2112.56005859375 2112.56005859375 2121.42993164062 2125.71997070312 2140.85009765625 2266.03002929688 2472.7099609375 2209.07006835938 2135.6298828125 2237.580078125 2128.09008789062 2054.169921875 2041.65002441406 2032.68994140625 2038.01000976562 2140.10009765625 2051.06005859375 2063.65991210938 2305.81005859375 2184.61010742188 2202.25 2244.19995117188 2346.75 2415.5400390625 2387.67993164062 2426.18994140625 2306.080078125 2379.63989257812 2159.30004882812 2224.6298828125 2452.919921875 2275.38989257812 2233.72998046875 2287.21997070312 2198.69995117188 2379.32006835938 2172.59008789062 1985.93005371094 1985.93005371094 2204.59008789062 2225.84008789062 2090.11010742188 2016.08996582031 2053.60009765625 2216.65991210938 2070.42993164062 2044.63000488281 2026.47998046875 2066.44995117188 2074.28002929688 2128.68994140625 2254.40991210938 2409.3701171875 2414.2099609375 2677.2099609375 2537.38989257812 2402.84008789062 2340.26000976562 2664.39990234375 2408.31005859375 2336.2900390625 2253.96997070312 2338.830078125 2415.36010742188 2521.98999023438 2644.05004882812 2634.15991210938 2510.85009765625 2359.18994140625 2276.21997070312 2206.56005859375 2142.43994140625 2098.85009765625 2037.32995605469 2155.31005859375 2191.48999023438 2138.97998046875 2125.26000976562 2136 1909.5400390625 1760.30004882812 1664.7099609375 1530.81994628906 1519.2099609375 1512.28002929688 1515.0400390625 1526.46997070312 1537.9599609375 1568.55004882812 1612.30004882812 1660.77001953125 1737.51000976562 1826.61999511719 1916.81005859375 2100.96997070312 2239.46997070312 2252.11010742188 2084.65991210938 1957.63000488281 1984.61999511719 1944.23999023438 1911.41003417969 1828.83996582031 1745.96997070312 1656.14001464844 1632.18994140625 1629.25 1616.47998046875 1604.81994628906 1585.28002929688 1574.84997558594 1577.4599609375 1582.0400390625 1590.77001953125 1607.16003417969 1624.75 1644.38000488281 1665.21997070312 1685.26000976562 1719.76000976562 1783.31994628906 2087.6201171875 2523.52001953125 2791.169921875 2375.02001953125 2010.14001464844 2198.22998046875 2211.919921875 2406.06005859375 2549.02001953125 2899.1201171875 2710.59008789062 2530.92993164062 2564.93994140625 2889.15991210938 2785.330078125 2661.8701171875 2584.75 2460.47998046875 2401.13989257812
1860.0400390625 1962.96997070312 2136.06005859375 2134.25 1944.26000976562 1873.55004882812 1807.76000976562 1663.67004394531 1640.44995117188 1593.78002929688 1538.4599609375 1503.94995117188 1503.94995117188 1552.48999023438 1876.98999023438 1876.23999023438 1838.72998046875 1874.92004394531 1930.16003417969 1911.19995117188 1934.67004394531 2100.97998046875 2251.21997070312 2181.60009765625 2063.830078125 2046.81005859375 2096.25 2185.94995117188 2294.01000976562 2388.56005859375 2310.67993164062 2293.419921875 2401.92993164062 2311.39990234375 2212.2099609375 2153.52001953125 2117.2900390625 2040.9599609375 1883.97998046875 1915.25 2174.8798828125 2146.76000976562 2120.56005859375 2119.98999023438 2144.90991210938 2144.90991210938 2155.18994140625 2184.67993164062 2545.75 2233.65991210938 2295.73999023438 2253.32006835938 2126 2101.2099609375 2067.11010742188 2032.85998535156 2035.40002441406 2033.23999023438 2038.96997070312 2100.4599609375 2148.5400390625 2269.92993164062 2249.75 2254.1201171875 2351.32006835938 2484.81005859375 2337.2099609375 2274.6298828125 2171.0400390625 2135.830078125 2100.26000976562 2197.38989257812 2362.57006835938 2397.23999023438 2436.73999023438 2339.06005859375 2328.64990234375 2241.8701171875 2128.52001953125 2051.7099609375 1982.88000488281 1978.58996582031 2079.40991210938 2079.14990234375 1952.63000488281 1974.47998046875 1974.47998046875 2002.38000488281 2012.03002929688 2062.78002929688 2127.78002929688 2127.78002929688 2169.26000976562 2239.63989257812 2355.3798828125 2427.67993164062 2585.93994140625 2398.56005859375 2265.85009765625 2223.39990234375 2354.80004882812 2401.13989257812 2188.6298828125 2187.94995117188 2329.84008789062 2431 2542.53002929688 2661.07006835938 2672.2099609375 2616.61010742188 2365.830078125 2447.73999023438 2322.40991210938 2470.8701171875 2363.26000976562 2239.46997070312 2323.75 2313.97998046875 2099.89990234375 1971.40002441406 2102.82006835938 1966.88000488281 1815.76000976562 1553.17004394531 1530.34997558594 1525.11999511719 1517.71997070312 1531.84997558594 1540.36999511719 1547.51000976562 1566.43005371094 1620.84997558594 1665.9599609375 1738.33996582031 1836.09997558594 1929.93005371094 2063.1201171875 2269.34008789062 2317.5400390625 2196.44995117188 2141.60009765625 2084.68994140625 2005.68994140625 1875.82995605469 1790.59997558594 1741.93005371094 1681.84997558594 1658.59997558594 1657.10998535156 1644.41003417969 1632.58996582031 1611.25 1590 1587.11999511719 1590.98999023438 1594.90002441406 1609.0400390625 1628.9599609375 1650.34997558594 1672.28002929688 1698.47998046875 1722.34997558594 1751.96997070312 1896.81005859375 2257.8798828125 2397.52001953125 2002.43994140625 1969.75 2077.07006835938 2277.5400390625 2693.05004882812 2679.80004882812 2752 2879.77001953125 2624.75 2670.93994140625 2849.2900390625 2798.89990234375 2760.75 2691.26000976562 2632.32006835938 2562.22998046875
1946.69995117188 2000.31994628906 2281.8798828125 2011.85998535156 1944.52001953125 1873.55004882812 1726.7900390625 1752.53002929688 1742.43994140625 1583.71997070312 1505.5400390625 1480.5400390625 1605.33996582031 1844.75 1971.38000488281 1907.19995117188 1941.82995605469 1919.7900390625 1939.27001953125 2068.89990234375 2012.82995605469 2113.669921875 2255.27001953125 2122.18994140625 2085.13989257812 2075.47998046875 2119.80004882812 2213.59008789062 2265.580078125 2298.18994140625 2414.92993164062 2423.6201171875 2337.47998046875 2152.44995117188 2061.96997070312 1964.69995117188 1902.9599609375 1795.98999023438 1795.98999023438 1974.23999023438 2093.2900390625 2231.44995117188 2119.98999023438 2135.93994140625 2086.82006835938 2101.34008789062 2286.669921875 2220.84008789062 2448.23999023438 2363.51000976562 2207.330078125 2153.07006835938 2123.3701171875 2116.7099609375 2043.66003417969 2030.38000488281 2021.4599609375 2014.80004882812 2017.91003417969 2041.06994628906 2077.40991210938 2118.84008789062 2256.2099609375 2378.15991210938 2389.080078125 2318.669921875 2360.89990234375 2341.72998046875 2285.03002929688 2217.7900390625 2080.78002929688 2180.72998046875 2251.3701171875 2282.34008789062 2322.93994140625 2414.75 2332.25 2283.23999023438 2219.86010742188 2148.89990234375 2110.01000976562 1978.58996582031 1978.58996582031 1959.51000976562 1936.51000976562 1985.9599609375 2065.73999023438 2250.52001953125 2266.59008789062 2176.27001953125 2202.98999023438 2159.27001953125 2195.07006835938 2378.35009765625 2451.19995117188 2416.86010742188 2652.72998046875 2418.6201171875 2334.22998046875 2146.30004882812 2112.60009765625 2240.38989257812 2110.65991210938 2110.65991210938 2287.38989257812 2438.2099609375 2503.830078125 2691.7900390625 2629.84008789062 2547.80004882812 2511.10009765625 2587.2099609375 2460.21997070312 2632.42993164062 2617.23999023438 2457.23999023438 2406.27001953125 2195.96997070312 1990.0400390625 1867.83996582031 1805.57995605469 1757.94995117188 1696.94995117188 1538.98999023438 1531.96997070312 1536.22998046875 1556.64001464844 1558.11999511719 1553.73999023438 1561.0400390625 1568.46997070312 1632.80004882812 1700.56005859375 1771.80004882812 1875.64001464844 2002.03002929688 2098.6201171875 2178.2900390625 2285.90991210938 2326.13989257812 2177.97998046875 2058.19995117188 1948.82995605469 1927.78002929688 1911.68994140625 1802.06994628906 1730.57995605469 1689.31005859375 1688.30004882812 1675.91003417969 1658.43005371094 1636.47998046875 1614.27001953125 1599.14001464844 1598.63000488281 1605.07995605469 1616.72998046875 1636.13000488281 1661.25 1689.05004882812 1708.83996582031 1738.15002441406 1769.13000488281 1804.7099609375 2043.76000976562 1902.26000976562 1913.59997558594 2080.2900390625 2321.830078125 2467.52001953125 2668.85009765625 2924.31005859375 2864.8701171875 2747.10009765625 2844.26000976562 2841.47998046875 2898.19995117188 2863.82006835938 2774.47998046875 2579.92993164062 2477.14990234375 2397.3798828125
2145.81005859375 2065.22998046875 2120.64990234375 1983.03002929688 1876.75 1822.46997070312 1771.28002929688 1906.85998535156 1730.56994628906 1677.39001464844 1682.32995605469 1459.23999023438 1599.91003417969 1982.93994140625 1949.14001464844 1961.55004882812 2109.64990234375 2117.96997070312 2023.86999511719 2150.9599609375 2167.78002929688 2231.63989257812 2120.73999023438 2118.01000976562 2108.36010742188 2204.5400390625 2147.11010742188 2123.42993164062 2150.18994140625 2195.39990234375 2427.34008789062 2365.919921875 2256.43994140625 2127.17993164062 2078.22998046875 2144.6201171875 1822.76000976562 1740.03002929688 1755.43005371094 2005.56994628906 2228.67993164062 2153.22998046875 2133.1298828125 2334.75 2047.02001953125 2042.27001953125 2461 2314.8798828125 2346.68994140625 2299.25 2224.30004882812 2215.76000976562 2150.06005859375 2075.13989257812 2044.4599609375 2043.40002441406 2018.34997558594 2011.7900390625 2002.44995117188 2010.84997558594 2010.71997070312 2062.28002929688 2222.47998046875 2367.32006835938 2280.82006835938 2246.8701171875 2215.44995117188 2186.18994140625 2116.419921875 2063.56005859375 2035.94995117188 2099.93994140625 2099.93994140625 2229.30004882812 2439.86010742188 2497.34008789062 2467.82006835938 2484.97998046875 2339.23999023438 2349.72998046875 2281.06005859375 2155.18994140625 1937.96997070312 1936.51000976562 1936.51000976562 2353 2365.6298828125 2299.6298828125 2325.34008789062 2362.7099609375 2500.9599609375 2417.07006835938 2257.10009765625 2363.30004882812 2620.34008789062 2549.97998046875 2728.85009765625 2602.30004882812 2335.2099609375 2239.56005859375 2093.90991210938 2058.419921875 2023.14001464844 2093.71997070312 2265.4599609375 2356.52001953125 2490.89990234375 2587.65991210938 2677.73999023438 2617.830078125 2548.73999023438 2563.94995117188 2607.72998046875 2694.11010742188 2557.59008789062 2325.73999023438 2310.97998046875 2289.97998046875 2045.31994628906 1918.2900390625 1774.21997070312 1705.07995605469 1626.86999511719 1540.23999023438 1574.88000488281 1574.88000488281 1639.7900390625 1644.89001464844 1572.73999023438 1576.01000976562 1578.60998535156 1623.4599609375 1728.97998046875 1779.5400390625 1853.09997558594 1988.55004882812 2063.19995117188 2095.6298828125 2246.48999023438 2379.75 2216.71997070312 2087.0400390625 2089.8701171875 2064.30004882812 2013.92004394531 1891.16003417969 1772.90002441406 1722.32995605469 1715.05004882812 1703.4599609375 1688.61999511719 1669.64001464844 1652.22998046875 1618.76000976562 1609.93994140625 1615.22998046875 1627.27001953125 1640.94995117188 1664.66003417969 1694.72998046875 1722.32995605469 1748.09997558594 1775.72998046875 1806.22998046875 1847.34997558594 1889.38000488281 1983.06005859375 2119.98999023438 2417.97998046875 2625.78002929688 2830.6201171875 2974.63989257812 2838.80004882812 2592.330078125 2707.27001953125 2705.169921875 2789.06005859375 2790.72998046875 2678.46997070312 2582.94995117188 2605.82006835938 2587.51000976562
2096.68994140625 2096.419921875 2093.09008789062 1943.47998046875 1959.02001953125 1914.2900390625 1965.06005859375 1903.78002929688 1830.81005859375 1759.97998046875 1610.80004882812 1456.4599609375 1551.18005371094 1894.56994628906 1897.06005859375 1984.71997070312 2094.69995117188 2168.39990234375 1887.0400390625 1928.15002441406 1934.16003417969 1905.47998046875 1969.93994140625 1982.76000976562 1938.05004882812 1906.57995605469 1867.85998535156 1901.64001464844 1930.05004882812 2043.64001464844 2273.3701171875 2303.84008789062 2164.09008789062 2261.2900390625 2165.5400390625 1951.21997070312 1903.31994628906 1724.13000488281 1768.67004394531 2189.34008789062 2383.669921875 2183.69995117188 2156.94995117188 2329.4599609375 2009.10998535156 1983.44995117188 2381.75 2183.69995117188 2292.26000976562 2340.55004882812 2279.7900390625 2246.75 2158.40991210938 2080.5 2073.77001953125 2048.88989257812 2031.90002441406 2023.92004394531 1994.9599609375 1989.09997558594 1987.43994140625 2008.25 2144.56005859375 2214.52001953125 2227.080078125 2180.09008789062 2167.10009765625 2148.15991210938 2205.69995117188 2139.2900390625 2035.58996582031 2035.58996582031 2158.59008789062 2255.63989257812 2550.07006835938 2372.90991210938 2397.169921875 2470.59008789062 2458.18994140625 2462.42993164062 2242.78002929688 2136.32006835938 1942.03002929688 1936.51000976562 1936.51000976562 2155.68994140625 2466.94995117188 2487.11010742188 2533.0400390625 2475.96997070312 2549.15991210938 2488.59008789062 2354.10009765625 2479.90991210938 2455.75 2435.26000976562 2435.61010742188 2358.59008789062 2308.40991210938 2193.56005859375 2092.18994140625 2004.2099609375 1986.27001953125 2079.11010742188 2161.89990234375 2311.40991210938 2451.03002929688 2588.73999023438 2659.830078125 2549.7900390625 2517.2099609375 2384.6201171875 2332.56005859375 2508.56005859375 2450.919921875 2277.73999023438 2176.10009765625 2253 2264.93994140625 2033.11999511719 1874.03002929688 1697.93005371094 1593.55004882812 1541.57995605469 1557.10998535156 1578.18994140625 1624.9599609375 1625.51000976562 1618.94995117188 1596.72998046875 1597.88000488281 1654.51000976562 1726.34997558594 1782.5 1860.78002929688 1952.34997558594 1988.5 2066.27001953125 2259.42993164062 2374.85009765625 2283.90991210938 2222.15991210938 2291.3701171875 2219.71997070312 2092.02001953125 1922.66003417969 1820.47998046875 1759.85998535156 1737.65002441406 1737.65002441406 1727.42004394531 1713.30004882812 1683.14001464844 1643.64001464844 1622.27001953125 1622.31005859375 1634.42004394531 1648.7099609375 1664.81005859375 1688.11999511719 1714.14001464844 1742.93005371094 1773.26000976562 1796.28002929688 1804.61999511719 1992.33996582031 2322.59008789062 2168.40991210938 2320.2900390625 2606.419921875 2849.85009765625 2864.72998046875 2726.82006835938 2482.13989257812 2479.56005859375 2628.2099609375 2853.84008789062 2833.07006835938 2808.5 2876.0400390625 2801.52001953125 2874.10009765625
2000.2900390625 2095.69995117188 2073.02001953125 2089.7099609375 2208.8798828125 2084.17993164062 2068.72998046875 1935.52001953125 1842.2900390625 1738.57995605469 1519.58996582031 1456.4599609375 1540.77001953125 1828.33996582031 1937.11999511719 2118.830078125 2211.5400390625 2084.23999023438 1818.81994628906 1803.34997558594 1838.59997558594 1777.42004394531 1875.16003417969 1827.47998046875 1794.09997558594 1812.36999511719 1867.85998535156 1935.93005371094 2023.58996582031 2023.58996582031 2162.40991210938 2216.34008789062 2039.46997070312 2225.92993164062 2097.22998046875 2015.13000488281 1814.19995117188 1691.76000976562 1890.5400390625 2239.6201171875 2262.46997070312 2213.4599609375 2312.65991210938 2092.3798828125 1933.25 1922.35998535156 1997.0400390625 2116.47998046875 2328.59008789062 2428.64990234375 2412.23999023438 2265.330078125 2169.90991210938 2086.31005859375 2050.71997070312 2045.75 2025.2900390625 2014.58996582031 1999.5400390625 1982.18005371094 1975.18994140625 1978.2900390625 2021.10998535156 2047.96997070312 2249.17993164062 2222.19995117188 2170.17993164062 2218.14990234375 2268.57006835938 2268.57006835938 2069.580078125 2016.51000976562 2194.89990234375 2255.669921875 2389.55004882812 2258.71997070312 2260.51000976562 2342.42993164062 2418.330078125 2398.92993164062 2229.61010742188 2175.93994140625 2135.330078125 1936.51000976562 1968.51000976562 2189.86010742188 2283.0400390625 2208.48999023438 2202.42993164062 2335.07006835938 2405.63989257812 2484.81005859375 2441.71997070312 2390.77001953125 2288.43994140625 2290.78002929688 2419.96997070312 2253.71997070312 2161.42993164062 2104.19995117188 2121.1298828125 1972.33996582031 2007.43994140625 2068.88989257812 2165.3798828125 2416.18994140625 2460.25 2595.18994140625 2679.7900390625 2578.8701171875 2487.38989257812 2542.71997070312 2224.919921875 2109.27001953125 2162 2149.39990234375 2096.330078125 2081 1983.81994628906 1999.5 1870.77001953125 1590.43994140625 1550.06994628906 1545.25 1622.33996582031 1607.05004882812 1609.15002441406 1618.41003417969 1631.57995605469 1615.63000488281 1615.63000488281 1666.60998535156 1723.41003417969 1777.75 1837.5 1920.51000976562 1973.68994140625 2020.14001464844 2235.06005859375 2443.03002929688 2419.68994140625 2342.72998046875 2331.02001953125 2193.36010742188 2091.89990234375 2027.31005859375 1866.83996582031 1795.26000976562 1769.63000488281 1776.9599609375 1764.14001464844 1745.91003417969 1712.15002441406 1669.13000488281 1641.86999511719 1633.2900390625 1641.83996582031 1656.09997558594 1674.03002929688 1688.39001464844 1706.78002929688 1725.90002441406 1750.14001464844 1769.08996582031 1786.66003417969 1891.51000976562 2129.26000976562 2517.6298828125 2581.93994140625 2524.919921875 2756.39990234375 2873.17993164062 2629.78002929688 2377.7099609375 2340.82006835938 2531.39990234375 2642.40991210938 2705.36010742188 2810.67993164062 2674.25 2639.07006835938 2767.419921875
1976.18994140625 1904.68994140625 1952.05004882812 1961.59997558594 2087.53002929688 1850.80004882812 1809.13000488281 1677.77001953125 1627.27001953125 1577.06994628906 1447.42004394531 1432.08996582031 1752.52001953125 1932.05004882812 2151.47998046875 2215.48999023438 2064.71997070312 1923.63000488281 1720.59997558594 1710.61999511719 1649.5400390625 1676.48999023438 1715.89001464844 1750.02001953125 1794.09997558594 2067.27001953125 2072.52001953125 2014.41003417969 2210.85009765625 2072.90991210938 2070.02001953125 1989.15002441406 1963.38000488281 2359.1298828125 2319.63989257812 2231.44995117188 1942 1680.14001464844 1782.36999511719 1961.09997558594 2324.01000976562 2292.93994140625 2111.42993164062 1951.89001464844 1834.81994628906 1848.5400390625 1916.65002441406 2015.86999511719 2448.05004882812 2455.919921875 2437.21997070312 2244.21997070312 2083.5400390625 2050.71997070312 2050.71997070312 2050.71997070312 2077.6298828125 2007.22998046875 1992.90002441406 1989.0400390625 1966.82995605469 1967.0400390625 1989.91003417969 2048.86010742188 2209.9599609375 2114.85009765625 2076.330078125 2216.1298828125 2182.9599609375 2224.77001953125 2030.57995605469 1992.06994628906 2092.6201171875 2223.67993164062 2168.93994140625 2199.92993164062 2146.78002929688 2237.2900390625 2461.64990234375 2447.2099609375 2406.7900390625 2276.669921875 2086.419921875 1936.51000976562 1936.51000976562 2108.38989257812 2011.67004394531 2074.6298828125 2143.90991210938 2261.42993164062 2448.94995117188 2600.59008789062 2601.32006835938 2474.23999023438 2206.15991210938 2206.15991210938 2452.6298828125 2323.2900390625 2190.67993164062 2074.10009765625 2028.78002929688 1933.02001953125 1966.48999023438 2151.6298828125 2197.69995117188 2503.71997070312 2428.7099609375 2422.78002929688 2509.26000976562 2615.669921875 2539.48999023438 2440.65991210938 2272.25 2061.2900390625 1961.2900390625 1861.46997070312 1935.93994140625 1990.41003417969 1790.84997558594 1805.60998535156 1600.48999023438 1600.48999023438 1733.59997558594 1657.75 1715.36999511719 1644.94995117188 1629.58996582031 1628.2900390625 1635.44995117188 1632.01000976562 1623.81005859375 1653.28002929688 1711.52001953125 1804.53002929688 1849 1894.10998535156 1938.56005859375 2024.17004394531 2161.90991210938 2367.669921875 2486.32006835938 2440.919921875 2435.14990234375 2290.19995117188 2020.05004882812 1946.61999511719 1892.56994628906 1823.05004882812 1801.92004394531 1814.06005859375 1790.56994628906 1766.69995117188 1731.93005371094 1696.63000488281 1658.67004394531 1643.46997070312 1647.60998535156 1663.4599609375 1679.17004394531 1695.0400390625 1711.4599609375 1726.73999023438 1744.07995605469 1760.81994628906 1799.83996582031 1882.94995117188 2034.63000488281 2294.34008789062 2541.07006835938 2709.13989257812 2876.39990234375 2852.36010742188 2648.97998046875 2258.080078125 2363.919921875 2666.07006835938 2776.52001953125 2847.76000976562 2919.73999023438 2720.57006835938 2539.86010742188 2414.69995117188
1766.07995605469 1766.07995605469 1808.88000488281 1829.25 1886.66003417969 1961.03002929688 1662.66003417969 1521 1469.43994140625 1412.48999023438 1412.48999023438 1412.48999023438 1950.40002441406 2044.10998535156 2059.63989257812 2011.98999023438 1858.02001953125 1732.51000976562 1656.86999511719 1621.5 1656.66003417969 1778.5 1866.11999511719 1849.78002929688 1904.06005859375 2146.67993164062 2050.59008789062 2041.7900390625 2189.55004882812 2149.47998046875 2120.830078125 1852.94995117188 1888.83996582031 2070.080078125 2233.8701171875 2238.07006835938 1848.25 1680.14001464844 1829.06994628906 2098.47998046875 2210.28002929688 2168.32006835938 2211.64990234375 2209.61010742188 1834.81994628906 1849.2099609375 2238.56005859375 2185.97998046875 2408.11010742188 2362.05004882812 2161.7900390625 2059.18994140625 2053.30004882812 2050.98999023438 2050.71997070312 2137.43994140625 2070.03002929688 2012.63000488281 2002.93005371094 1979.92004394531 1960.06994628906 1957.55004882812 1960.15002441406 2011.98999023438 2105.1298828125 2039.63000488281 2039.63000488281 2072.03002929688 2074.6298828125 2084.28002929688 2038.4599609375 1990.52001953125 2081.3798828125 2147.82006835938 2038.07995605469 2100.75 2229.34008789062 2287.43994140625 2413.92993164062 2503.82006835938 2384.27001953125 2132.26000976562 2108.32006835938 1936.51000976562 1961.35998535156 1970.88000488281 1980.08996582031 2125.1201171875 2320.19995117188 2403.3798828125 2525.56005859375 2654.40991210938 2457.69995117188 2325.76000976562 2175.60009765625 2262.1201171875 2319.2099609375 2489.56005859375 2290.51000976562 2086.5 1989.21997070312 1933.02001953125 1916.40002441406 2038.48999023438 2104.80004882812 2325.46997070312 2311.36010742188 2335.15991210938 2481.02001953125 2609.19995117188 2532.14990234375 2388.35009765625 2363.71997070312 2326.10009765625 2270.3798828125 1996.66003417969 1782.34997558594 1746.53002929688 1743.56005859375 1610.03002929688 1610.03002929688 1833.60998535156 1860.60998535156 1801.32995605469 1865.02001953125 1772.81994628906 1681.61999511719 1657.2099609375 1654.34997558594 1648.31005859375 1641.43994140625 1644.63000488281 1722.94995117188 1787.01000976562 1794.31005859375 1847.18005371094 1953.52001953125 2039.31005859375 2214.31005859375 2362.51000976562 2488.13989257812 2419.31005859375 2405.94995117188 2194.830078125 2104.64990234375 1952.53002929688 1928.25 1864.26000976562 1854.71997070312 1848.13000488281 1824.48999023438 1788.81005859375 1750.47998046875 1705.84997558594 1657.67004394531 1654.56994628906 1658.93994140625 1667.91003417969 1686.58996582031 1703.80004882812 1719.15002441406 1738.80004882812 1757.81994628906 1773.18994140625 1793.25 1895.96997070312 2058.42993164062 2214.2099609375 2429.35009765625 2650.67993164062 2793.2900390625 2767.5400390625 2421.03002929688 2218.10009765625 2524.96997070312 2740.85009765625 2745.10009765625 2701.35009765625 2862.77001953125 2789.92993164062 2722.0400390625 2579.42993164062
1714.66003417969 1723.47998046875 1639.33996582031 1723.27001953125 1888.93994140625 2053.35009765625 1808.41003417969 1554.4599609375 1379.56994628906 1412.48999023438 1530.31994628906 1714.77001953125 1910.06994628906 1861.78002929688 2012.71997070312 1851.78002929688 1666.5 1553.78002929688 1590.31005859375 1621.5 1730.51000976562 2033.89001464844 2130.48999023438 2147.82006835938 2179.97998046875 2107.96997070312 2101.85009765625 2185.07006835938 2274.669921875 2173.57006835938 2179.36010742188 1776.92004394531 1803.36999511719 1978.61999511719 1992.7900390625 1955.02001953125 1703.77001953125 1662.93994140625 1820.48999023438 2298.32006835938 1975.51000976562 2111.61010742188 2177.4599609375 1981.25 1809.65002441406 1860.35998535156 2196.0400390625 2333.22998046875 2394.21997070312 2281.92993164062 2073.97998046875 2056.98999023438 2054.71997070312 2097.44995117188 2130.10009765625 2156.19995117188 2058.64990234375 1998.27001953125 1994.59997558594 1988.98999023438 1951.57995605469 1951.30004882812 1955.13000488281 1991.61999511719 2101.81005859375 2014.0400390625 2003.88000488281 2052.18994140625 2036.26000976562 2010.7900390625 1990.07995605469 1942.93005371094 2020.60998535156 1982.18005371094 2008.03002929688 2249.07006835938 2342.34008789062 2467.26000976562 2321.63989257812 2300.03002929688 2262.8701171875 2081.35009765625 2054.09008789062 1936.51000976562 1936.51000976562 2046.31005859375 2206.76000976562 2148.38989257812 2309.5400390625 2530.0400390625 2654.46997070312 2464.14990234375 2270.2900390625 2146.8798828125 2123.76000976562 2183.419921875 2307.82006835938 2519.53002929688 2406.09008789062 2159.32006835938 1994.68994140625 1898.26000976562 1894.02001953125 1929.98999023438 1962.58996582031 2059.59008789062 2158.06005859375 2438.59008789062 2506.68994140625 2662.77001953125 2549.76000976562 2520.73999023438 2532.63989257812 2691.419921875 2376.13989257812 2134.53002929688 1955.7099609375 1720.84997558594 1666.80004882812 1610.03002929688 1743.2099609375 2056.88989257812 2037.17004394531 2046.53002929688 2050.92993164062 1860.69995117188 1745.4599609375 1694.31005859375 1675.09997558594 1674.5400390625 1687.31994628906 1659.59997558594 1712.06994628906 1736.85998535156 1808.06005859375 1877.14001464844 1985.66003417969 2085.26000976562 2180.97998046875 2329.64990234375 2452.39990234375 2442.56005859375 2548.75 2674.68994140625 2394.23999023438 2124.1201171875 2026.94995117188 2016.2900390625 1919.16003417969 1873.46997070312 1833.96997070312 1772.57995605469 1739.19995117188 1694.17004394531 1662.9599609375 1664.78002929688 1671.61999511719 1677.48999023438 1698.65002441406 1719 1733.11999511719 1749.34997558594 1766.84997558594 1788.14001464844 1802.52001953125 1872.59997558594 2006.9599609375 2144.86010742188 2388.3798828125 2544.10009765625 2639.61010742188 2570.94995117188 2186.84008789062 2198.42993164062 2530.080078125 2899.30004882812 2718.65991210938 2595.07006835938 2564.85009765625 2683.68994140625 2691.14990234375 2427.26000976562
1646.03002929688 1523.38000488281 1549.46997070312 1779.46997070312 1885.43005371094 2018.56994628906 1706.83996582031 1540.93994140625 1366.13000488281 1396.56994628906 1462.17004394531 1738.76000976562 1758.23999023438 1848.68994140625 1951.91003417969 1610.28002929688 1484.31005859375 1520.90002441406 1730.82995605469 1748.51000976562 1868.35998535156 2202.64990234375 2239.11010742188 2191.34008789062 2206.830078125 2180.59008789062 2138.13989257812 2061.47998046875 2041.31994628906 1954.18994140625 1744.56005859375 1689.7900390625 1856.89001464844 2014.18994140625 1777.58996582031 1709.68994140625 1591.41003417969 1615.01000976562 2024.58996582031 2174.82006835938 1837.61999511719 1876.7900390625 1708.83996582031 1736.57995605469 1803.02001953125 1899.93005371094 1998.35998535156 2469.14990234375 2367.59008789062 2100.11010742188 2080.419921875 2187.669921875 2200.07006835938 2150.1201171875 2012.06005859375 1995.78002929688 1995.64001464844 1987.42004394531 1976.92004394531 1957.77001953125 1946.90002441406 1946.90002441406 1950.98999023438 1952.18005371094 1980.68994140625 1981.98999023438 2003.14001464844 2052.18994140625 2076 2105.44995117188 2009.48999023438 1942.93005371094 1926.64001464844 1951.33996582031 2068.10009765625 2082.81005859375 2274.23999023438 2230.98999023438 2226.77001953125 2200.97998046875 2336.5 2179.02001953125 2002.47998046875 1936.51000976562 2011.30004882812 2133.76000976562 2222.56005859375 2406.0400390625 2328.73999023438 2346.23999023438 2485.42993164062 2365.48999023438 2134.7099609375 2042.7900390625 2170.53002929688 2334.59008789062 2393.75 2474.35009765625 2308.25 2241.65991210938 2074.52001953125 1951.10998535156 1894.02001953125 2009.43005371094 2028.06005859375 2210.2900390625 2240.169921875 2450.42993164062 2514.32006835938 2631.77001953125 2585.669921875 2690.01000976562 2707.30004882812 2829.35009765625 2517.9599609375 2097.11010742188 1842 1806.84997558594 1634.67004394531 1610.03002929688 1648.52001953125 1927.89001464844 2074.22998046875 2131.80004882812 1919.2099609375 1817.88000488281 1761.0400390625 1722.05004882812 1702.75 1715.36999511719 1732.11999511719 1680.84997558594 1703.21997070312 1757.56005859375 1816.55004882812 1920.4599609375 1996.63000488281 2029.82995605469 2113.5 2208.43994140625 2371.63989257812 2481.27001953125 2636.5400390625 2797.77001953125 2547.96997070312 2248.11010742188 2132.38989257812 2022.31005859375 1919.16003417969 1952.96997070312 1901.96997070312 1768.09997558594 1724.75 1688.57995605469 1669.96997070312 1671.81994628906 1680.92004394531 1690.43994140625 1706.33996582031 1726.08996582031 1746.02001953125 1764.06994628906 1783.58996582031 1801.63000488281 1818.4599609375 1847.76000976562 1972.4599609375 2123.25 2214.47998046875 2540.8798828125 2465.3798828125 2271.4599609375 2170.02001953125 2322.51000976562 2719.21997070312 2891.25 2722.06005859375 2553.09008789062 2447.0400390625 2421.31005859375 2454.81005859375 2295.72998046875
1551.56994628906 1428.43994140625 1531.21997070312 1659.31005859375 1831.75 1916.25 1622.14001464844 1555.10998535156 1347.25 1349.0400390625 1538.23999023438 1585.96997070312 1656.57995605469 1870.81994628906 1631.75 1460.89001464844 1474.56005859375 1594.69995117188 1774.52001953125 2053.9599609375 2171.63989257812 2226.11010742188 2091.22998046875 2052.82006835938 2217.38989257812 2229.7900390625 2214.98999023438 1833.51000976562 1767.52001953125 1746.71997070312 1646.61999511719 1663.43005371094 2052.6201171875 1872.66003417969 1722.84997558594 1558 1564.9599609375 1798.81005859375 2257.35009765625 1972.90002441406 1724.97998046875 1659.68005371094 1659.68005371094 1864.16003417969 2081.46997070312 2050.39990234375 2036.90002441406 2383.9599609375 2281.85009765625 2089.86010742188 2097.69995117188 2348.11010742188 2163.09008789062 2002.66003417969 1994.7099609375 1989.43994140625 1989.43994140625 1988.72998046875 1985.13000488281 1963.9599609375 1940.07995605469 1965.98999023438 1951.18994140625 1951.65002441406 1965.03002929688 1973.80004882812 2072.1298828125 2041.5400390625 2122.2099609375 2095.39990234375 2075.07006835938 2031.56005859375 1926.64001464844 1898.52001953125 1962.7900390625 2051.67993164062 2197.31005859375 2134.75 2096.01000976562 2038.06005859375 2285.84008789062 2126.5 1936.51000976562 1903.18005371094 2108.39990234375 2291.32006835938 2372.36010742188 2338.71997070312 2209.86010742188 2275.18994140625 2565.73999023438 2340.02001953125 2143.96997070312 1979.06005859375 2194.80004882812 2143.42993164062 2347.89990234375 2432.77001953125 2242.580078125 2211.8798828125 2164.71997070312 1984.81005859375 1888.08996582031 1940.18994140625 2039.39001464844 2157.51000976562 2388.2099609375 2397.3701171875 2410.93994140625 2604.6201171875 2709.6201171875 2781.419921875 2693.48999023438 2405.080078125 2289.15991210938 1941.41003417969 1775.72998046875 1707.52001953125 1610.03002929688 1610.03002929688 1665.90002441406 1841.84997558594 2063.9599609375 2173.2099609375 1958.18994140625 1856.48999023438 1789.01000976562 1740.03002929688 1732.75 1759.16003417969 1798.80004882812 1696.44995117188 1706.60998535156 1744.2900390625 1793.67004394531 1853.52001953125 1943.58996582031 2067.34008789062 2219.78002929688 2219.30004882812 2306.3701171875 2514.21997070312 2584.75 2822.06005859375 2582.93994140625 2321.44995117188 2167.23999023438 2062.47998046875 1946.75 2029.68005371094 1982 1881.32995605469 1751 1695.31005859375 1683.84997558594 1684.43005371094 1690.48999023438 1697.81005859375 1708.28002929688 1731.97998046875 1754.05004882812 1776.48999023438 1797.63000488281 1816.33996582031 1836.40002441406 1852.36999511719 1970.53002929688 2013.77001953125 2184.44995117188 2397.1201171875 2373.34008789062 2155.84008789062 2159.23999023438 2462.84008789062 2762.7900390625 2934.0400390625 2789.72998046875 2600.85009765625 2468.72998046875 2377.2900390625 2330.09008789062 2311.44995117188
1406.75 1363.5 1533.02001953125 1571.48999023438 1874.93994140625 1888.94995117188 1679.96997070312 1423.2900390625 1296.66003417969 1310.84997558594 1399.4599609375 1508.68994140625 1658.22998046875 1841.81005859375 1528.56005859375 1432.34997558594 1582.47998046875 1591.06994628906 1664.16003417969 1804.7900390625 1991.26000976562 2251.419921875 2107.81005859375 1899.10998535156 2146.39990234375 2065.34008789062 1748.19995117188 1738.21997070312 1582.35998535156 1571.81005859375 1582.71997070312 1842.48999023438 1982.48999023438 1751.08996582031 1596.47998046875 1540.23999023438 1695.89001464844 2058.42993164062 2147.23999023438 2087.48999023438 1642.58996582031 1615.17004394531 1808.68994140625 2003.17004394531 2192.3701171875 2200.919921875 2292.17993164062 2354.7099609375 2181.86010742188 2107.64990234375 2414.92993164062 2358.1298828125 2067.77001953125 2003.7900390625 1998.56994628906 1996.81994628906 2116.5400390625 2047.60998535156 1973.58996582031 1947.67004394531 1937.33996582031 1980.03002929688 1965.55004882812 1961.06994628906 1981.55004882812 2071.57006835938 1994.42004394531 1970.27001953125 2079.69995117188 2071.11010742188 2032.13000488281 1919.64001464844 1898.52001953125 1898.52001953125 1898.52001953125 2007.75 2025.01000976562 1965.31994628906 1998.43994140625 2024.81005859375 2175.23999023438 1877.18994140625 1877.65002441406 1877.65002441406 2320.82006835938 2407.2900390625 2470.19995117188 2216.80004882812 2158.32006835938 2357.43994140625 2415.25 2181.65991210938 2051.39990234375 1953.32995605469 2038.15002441406 2105.93994140625 2264.53002929688 2247.90991210938 2190.75 2109.5400390625 2002.7900390625 1993.25 1888.08996582031 1921.34997558594 2068.77001953125 2259.23999023438 2353.830078125 2278.02001953125 2362.97998046875 2625.2099609375 2661.6201171875 2604.35009765625 2579.93994140625 2293.419921875 2070.8798828125 1881.93005371094 1769.17004394531 1648.94995117188 1610.03002929688 1610.03002929688 1729.60998535156 1860.60998535156 2153.36010742188 2157.26000976562 1991.26000976562 1917.81994628906 1824.2900390625 1777.5 1786.60998535156 1835 1793.76000976562 1706.56005859375 1706.64001464844 1746.41003417969 1783.07995605469 1826.52001953125 2079.96997070312 2148.65991210938 2275.73999023438 2332.02001953125 2392.09008789062 2564.7099609375 2594.35009765625 2690.46997070312 2623.93994140625 2312.64990234375 2111.6201171875 2029.58996582031 1973.26000976562 2110.71997070312 2130.85009765625 1936.73999023438 1825.32995605469 1728.42004394531 1709.80004882812 1706.90002441406 1704.16003417969 1707.63000488281 1714.77001953125 1730.25 1756.5 1781.4599609375 1804.85998535156 1829.51000976562 1852.56994628906 1867.52001953125 1896.41003417969 1982.25 2015.07995605469 2209.330078125 2157.42993164062 2100.60009765625 2285.96997070312 2603.51000976562 2802.36010742188 3109.1201171875 2834.75 2715.80004882812 2593.05004882812 2426.40991210938 2377.60009765625 2455.27001953125
1319.21997070312 1294.80004882812 1397.88000488281 1615.84997558594 1892.06994628906 1614.42004394531 1535.65002441406 1330.26000976562 1253.42004394531 1270.47998046875 1423.76000976562 1710.66003417969 1725.94995117188 1562.77001953125 1407.18005371094 1424.9599609375 1506.63000488281 1650.06994628906 1750.81005859375 1983.43005371094 2143.17993164062 2076.0400390625 1874.47998046875 1788.01000976562 2259.69995117188 1988.33996582031 1656.30004882812 1554.48999023438 1510.56994628906 1619.02001953125 1741.32995605469 1788.27001953125 2077.0400390625 1892.10998535156 1540.23999023438 1540.23999023438 1950.82995605469 1970.43005371094 1791.41003417969 1816.01000976562 1556.30004882812 1581.92004394531 2006.22998046875 2312.42993164062 2385.48999023438 2182.22998046875 2280.35009765625 2486.7900390625 2163.2900390625 2148.82006835938 2509.64990234375 2340.13989257812 2079.73999023438 2247.17993164062 2203.10009765625 2143.76000976562 2233.27001953125 2146.2099609375 1995.69995117188 1947.64001464844 1929.15002441406 1920.65002441406 1973.0400390625 1976.82995605469 1986.82995605469 1982.19995117188 2017.16003417969 1954.21997070312 1972.80004882812 1898.52001953125 1898.52001953125 1898.52001953125 1898.52001953125 1898.52001953125 1898.52001953125 1898.52001953125 1898.52001953125 1898.52001953125 1964.16003417969 1933.85998535156 1912.68005371094 1848.56005859375 1920.93005371094 2199.89990234375 2131.1298828125 2173.85009765625 2403.1201171875 2119.21997070312 2119.21997070312 2256.19995117188 2331.34008789062 2281.1298828125 2072.48999023438 1953.32995605469 2009.57995605469 2052.19995117188 2025.42004394531 2216.52001953125 2204.80004882812 2071.53002929688 1990.10998535156 1791.16003417969 1793.64001464844 1972.63000488281 2207.52001953125 2283 2335.38989257812 2222.55004882812 2342.51000976562 2532.830078125 2757.2099609375 2433.55004882812 2198.48999023438 2262.52001953125 2052.13989257812 1783.81994628906 1766.17004394531 1612.42004394531 1610.03002929688 1634.43994140625 1715.27001953125 1822.31005859375 2028.93994140625 2178.30004882812 2169.57006835938 2010.25 1884.30004882812 1840.18005371094 1918.77001953125 1880.51000976562 1879.75 1786.32995605469 1719.27001953125 1764.08996582031 1805.28002929688 1840.55004882812 1972.40002441406 2055.90991210938 2144.81005859375 2229.85009765625 2596.28002929688 2626.5 2524.05004882812 2428.92993164062 2168.17993164062 2136.93994140625 2111.6201171875 2142.03002929688 2113.7099609375 2267.07006835938 2286.18994140625 2047.7900390625 1808.10998535156 1775.66003417969 1740.86999511719 1733.4599609375 1733.39001464844 1725.11999511719 1722.84997558594 1733.96997070312 1752.02001953125 1782.58996582031 1807.28002929688 1832.0400390625 1852.18994140625 1885.14001464844 1906.5 1913.56005859375 1940.06005859375 1977.51000976562 2046.73999023438 2047.4599609375 2379.4599609375 2559.75 2725.86010742188 2863.669921875 2942.580078125 2718.90991210938 2576.919921875 2617.06005859375 2418.81005859375 2495.13989257812
1223.11999511719 1279.13000488281 1417.0400390625 1662.03002929688 1944.41003417969 1508.14001464844 1349.9599609375 1192.06994628906 1196.63000488281 1281.41003417969 1524.2099609375 1564.2900390625 1529.83996582031 1401.58996582031 1330.93994140625 1486.57995605469 1648.64001464844 1766.83996582031 2028.7099609375 2183.94995117188 2247.73999023438 1998.23999023438 1658.78002929688 1764.13000488281 1961.92004394531 1846.13000488281 1584.88000488281 1476.91003417969 1482.91003417969 1577.0400390625 1586.76000976562 1762.56994628906 2062.57006835938 1775.48999023438 1540.23999023438 1547.78002929688 1773.65002441406 1693.57995605469 1604.18005371094 1683.75 1512.9599609375 1571.55004882812 1803.31994628906 1866.84997558594 2199.82006835938 2143.10009765625 2059.1201171875 2214.11010742188 2193.13989257812 2255.82006835938 2529.09008789062 2313.65991210938 2107.9599609375 2339.3701171875 2455.84008789062 2308.21997070312 2089.92993164062 2030.78002929688 1982.43005371094 1960.97998046875 1969.23999023438 1918.72998046875 1912.30004882812 1910.18005371094 1948.06994628906 1934.56994628906 1900.2900390625 1900.2900390625 1900.2900390625 1898.52001953125 1898.52001953125 1898.52001953125 1917.91003417969 2030.7099609375 2061.5 1927.33996582031 1898.52001953125 1898.52001953125 1898.52001953125 1860.5 1843.97998046875 1843.97998046875 1843.97998046875 1979.93005371094 1967.32995605469 2174 2263.5400390625 2020.5 2144.43994140625 2068.18994140625 2169.419921875 2336.78002929688 2160.72998046875 1882.56005859375 1869.4599609375 1869.4599609375 1921.52001953125 2024 2166.42993164062 1938.93994140625 1967.9599609375 1779.60998535156 1987.10998535156 2123.73999023438 2327.81005859375 2520.80004882812 2162.39990234375 2183.53002929688 2376.72998046875 2576.96997070312 2763.55004882812 2477.40991210938 2131.14990234375 1871.39001464844 1820.08996582031 1619.4599609375 1610.03002929688 1610.03002929688 1610.03002929688 1719.03002929688 1702.41003417969 1786.22998046875 2006.5 2282.14990234375 2406.8798828125 2288.84008789062 2020.53002929688 1899.06005859375 1937.19995117188 1961.18005371094 1906.31005859375 1807.7099609375 1738.19995117188 1761.19995117188 1827.01000976562 1868.10998535156 1917.86999511719 2177.09008789062 2183.38989257812 2295.72998046875 2654.669921875 2705.40991210938 2493.6201171875 2231.68994140625 2209.32006835938 2330.97998046875 2220.14990234375 2212.7900390625 2141.1298828125 2267.38989257812 2196.36010742188 2158.27001953125 1872.52001953125 1821.81994628906 1777.84997558594 1766.23999023438 1765.9599609375 1756.52001953125 1745.59997558594 1744.71997070312 1752.14001464844 1786.43005371094 1807.36999511719 1830.07995605469 1844.0400390625 1861.26000976562 1921.88000488281 1961.18005371094 1965.85998535156 1964.32995605469 2010.23999023438 2059.64990234375 2253.27001953125 2552.60009765625 2716.26000976562 2829.51000976562 2810.03002929688 2719.0400390625 2805.7900390625 2642.10009765625 2492.19995117188 2506.51000976562
1169.56005859375 1358.94995117188 1617.19995117188 1799.30004882812 1863.48999023438 1523.23999023438 1303.40002441406 1192.06994628906 1192.06994628906 1357.26000976562 1598.78002929688 1382.80004882812 1352.77001953125 1289.94995117188 1317.2099609375 1500.67004394531 1706.02001953125 1906.31994628906 2068.17993164062 2074.1298828125 1958 1765.63000488281 1566.92004394531 1777.92004394531 1888.5 1642.5 1568.42004394531 1421.2099609375 1478.91003417969 1530.16003417969 1707.92004394531 1930.47998046875 1792.2900390625 1787.58996582031 1490.36999511719 1487.98999023438 1516.38000488281 1483.08996582031 1459.75 1459.75 1463.41003417969 1484.86999511719 1563.58996582031 1763.43994140625 2031.85998535156 1872.58996582031 1819.33996582031 2003.59997558594 2340.5400390625 2377.8798828125 2427.30004882812 2191.92993164062 2130.55004882812 2360.4599609375 2570.580078125 2230.47998046875 2056.21997070312 2050.31005859375 2042.60998535156 2081.3701171875 2040.63000488281 1933.33996582031 1916.35998535156 1905.96997070312 1901.19995117188 1900.2900390625 1900.2900390625 1900.69995117188 1969.93005371094 2013.52001953125 1991.91003417969 1945.76000976562 1943.56005859375 2203.13989257812 2180.669921875 2084.39990234375 2030.59997558594 2249.63989257812 2138.88989257812 2183.55004882812 2180.7099609375 1890.68005371094 1843.97998046875 1829.84997558594 1890.35998535156 1995.28002929688 2213.57006835938 1926.39001464844 2108.8798828125 1962.42004394531 2199.38989257812 2148.46997070312 2290.02001953125 2064.61010742188 1935.61999511719 1844.88000488281 1835.81994628906 1809.92004394531 2146.15991210938 1935.35998535156 1792.15002441406 1762.78002929688 1997 2179.25 2258.6201171875 2355.30004882812 2041.44995117188 2185.07006835938 2514.9599609375 2742.96997070312 2764.47998046875 2500.14990234375 2159.36010742188 1847.18994140625 1718.31994628906 1610.03002929688 1610.03002929688 1671.32995605469 1828.31005859375 1927.43005371094 1831.39001464844 1822.44995117188 1920.2099609375 2119.3701171875 2449.05004882812 2571.580078125 2141.8798828125 1969.91003417969 1962.61999511719 2075.82006835938 1928.60998535156 1873.34997558594 1801.13000488281 1812.5400390625 1843.72998046875 1897.55004882812 1929.35998535156 2135.80004882812 2323.14990234375 2421.56005859375 2629.52001953125 2747.73999023438 2414.1201171875 2273.85009765625 2473.46997070312 2623.60009765625 2476.2900390625 2351.98999023438 2267.78002929688 2224.13989257812 2131.01000976562 2038.43005371094 1921.88000488281 1855.43994140625 1815.68005371094 1800.34997558594 1798.05004882812 1786.97998046875 1775.08996582031 1761.40002441406 1763.68005371094 1774.97998046875 1814.96997070312 1817.60998535156 1828.65002441406 1835.31005859375 1894.33996582031 2019.90002441406 2096.17993164062 2137.8798828125 2128.05004882812 2084.94995117188 2084.94995117188 2242.77001953125 2465.39990234375 2703.48999023438 2722.8701171875 2558.53002929688 2636.96997070312 2673.51000976562 2659.22998046875 2659.26000976562
1153.13000488281 1354.86999511719 1375.80004882812 1589.90002441406 1832.2099609375 1442.53002929688 1213.11999511719 1184.56005859375 1314.21997070312 1588 1321.82995605469 1272.16003417969 1237.18005371094 1320.43994140625 1435.67004394531 1540.66003417969 1637.66003417969 1845.5 1661.55004882812 1891.68005371094 1653.75 1687.32995605469 1529.02001953125 1464.30004882812 1492.10998535156 1543.39001464844 1572.21997070312 1385.2099609375 1421.2099609375 1583.02001953125 1776.53002929688 1749.46997070312 1675.35998535156 1814.01000976562 1562.27001953125 1429.31994628906 1459.75 1459.75 1459.75 1459.75 1512.98999023438 1484.86999511719 1493.82995605469 1506.2900390625 1604.38000488281 1646.76000976562 1734.94995117188 1999.93994140625 2313.82006835938 2279.75 2340.5400390625 2233.3798828125 2250.80004882812 2456.77001953125 2496.919921875 2351.71997070312 2161.580078125 2089.32006835938 2049.52001953125 2043.15002441406 2018.0400390625 1953.65002441406 1927.68994140625 1915.55004882812 1900.5 1900.2900390625 1960.80004882812 2026.43994140625 2064.11010742188 2162.02001953125 1987.94995117188 1959.5400390625 2046.09997558594 2065.86010742188 2232.71997070312 2091.85009765625 2105.1298828125 2284.28002929688 2315.77001953125 2448.05004882812 2156.419921875 2072.43994140625 2132.7900390625 1829.84997558594 1829.84997558594 1818.7900390625 1880.17004394531 1832.17004394531 1952.98999023438 1894.34997558594 2070.6298828125 1964.56005859375 2049.35009765625 2233.17993164062 2195.11010742188 2098.69995117188 1955.01000976562 1809.92004394531 1990.60998535156 2160.68994140625 1940.92004394531 1760.52001953125 1879.23999023438 2131.5400390625 2238.55004882812 2326.52001953125 1971.64001464844 2025.5 2327.2900390625 2695.8701171875 2588.40991210938 2209.38989257812 2079.14990234375 1951.76000976562 1705.93994140625 1610.69995117188 1637.4599609375 1724.66003417969 1866.5400390625 1973.2099609375 1948.58996582031 1869.88000488281 1915.77001953125 2029.56994628906 2233.80004882812 2562.3798828125 2235.92993164062 2048.80004882812 2039.89001464844 2065.98999023438 1927.56005859375 1910.66003417969 1952.4599609375 1835.84997558594 1835.84997558594 1874.81994628906 1938.76000976562 2129.1201171875 2603.22998046875 2527.73999023438 2686.65991210938 2665.35009765625 2365.5 2330.55004882812 2585.080078125 2792.48999023438 2623.419921875 2683 2426.61010742188 2356.77001953125 2143.43994140625 2043.59997558594 1969.18994140625 1912.34997558594 1861.97998046875 1837.97998046875 1830.93994140625 1818.64001464844 1803.31994628906 1783.91003417969 1780.80004882812 1787.08996582031 1791.10998535156 1796.39001464844 1807.18994140625 1815.55004882812 1883.66003417969 1993.60998535156 2164 2314.09008789062 2391.84008789062 2219.96997070312 2172.15991210938 2206.330078125 2325.0400390625 2467.60009765625 2614.830078125 2401.63989257812 2586.1298828125 2596.60009765625 2621.2099609375 2562.830078125
1066.68994140625 1098.35998535156 1187.21997070312 1410.68994140625 1506.22998046875 1313.38000488281 1215.16003417969 1184.56005859375 1197.81994628906 1197.81994628906 1252.69995117188 1214.13000488281 1227.73999023438 1294.46997070312 1397.83996582031 1502.82995605469 1583.91003417969 1714.34997558594 1600.51000976562 1633.56005859375 1535.53002929688 1610.28002929688 1583.96997070312 1407.72998046875 1387.2099609375 1502.82995605469 1395.59997558594 1373.35998535156 1527.7099609375 1591.78002929688 1733.84997558594 1541.73999023438 1600.78002929688 1524.0400390625 1454.51000976562 1425.80004882812 1431.60998535156 1537.4599609375 1566.07995605469 1683.03002929688 1768.81005859375 1583.98999023438 1530.5400390625 1514.40002441406 1514.40002441406 1540.42004394531 1663.66003417969 2115.60009765625 2196.65991210938 2191.02001953125 2384.36010742188 2441.669921875 2350.57006835938 2435.23999023438 2434.77001953125 2230.47998046875 2142.84008789062 2087.44995117188 2045.05004882812 2022.38000488281 2022.38000488281 1965.53002929688 1941.36999511719 1925.38000488281 1913.15002441406 1910.06994628906 1949.59997558594 2122.42993164062 2099.77001953125 2092.9599609375 2002.7099609375 2139.39990234375 2083.82006835938 2096.3798828125 2172.14990234375 2146.15991210938 2257.06005859375 2438.2099609375 2547.82006835938 2410.03002929688 2325.580078125 2444.7099609375 2290.580078125 2101.7900390625 1818.7900390625 1818.7900390625 1818.7900390625 1818.7900390625 1818.7900390625 1818.7900390625 1818.7900390625 1818.7900390625 1873.40002441406 1895.32995605469 1939.0400390625 2012.93005371094 2057.98999023438 1809.92004394531 1959.71997070312 2425.98999023438 1994.76000976562 1724.43994140625 1864.5 2095.419921875 2223.22998046875 2004.39001464844 1883.51000976562 2092.53002929688 2423.93994140625 2650.40991210938 2544.0400390625 2290.1201171875 1847.05004882812 1789.67004394531 1658.73999023438 1610.69995117188 1673.90002441406 1769.41003417969 1797.2099609375 1863.44995117188 1916.68005371094 2000.27001953125 2054.71997070312 2209.90991210938 2305.169921875 2472.34008789062 2380.22998046875 2079.81005859375 1989.02001953125 1999.2900390625 1994.93005371094 1972.06994628906 1927.44995117188 1835.84997558594 1835.84997558594 1894.88000488281 1962.7099609375 2095.8798828125 2530.35009765625 2406.77001953125 2766.39990234375 2654.6201171875 2415.43994140625 2559.40991210938 2539.73999023438 2820.42993164062 2794.42993164062 2739.01000976562 2549.82006835938 2307.89990234375 2222.64990234375 2075.23999023438 2018.13000488281 1960.72998046875 1905.57995605469 1873.69995117188 1861.97998046875 1848.32995605469 1829.18005371094 1807.7099609375 1798.73999023438 1800.11999511719 1803.0400390625 1801.28002929688 1811.39001464844 1815.80004882812 1829 1968.07995605469 2237.80004882812 2370.90991210938 2570.3701171875 2462.1298828125 2316.14990234375 2206.330078125 2215.7099609375 2215.7099609375 2233.8701171875 2306.5 2395.23999023438 2558.21997070312 2659.02001953125 2455.7900390625
1270.31994628906 1121.52001953125 1121.52001953125 1144.2099609375 1335.17004394531 1184.56005859375 1184.56005859375 1184.56005859375 1197.81994628906 1197.81994628906 1197.81994628906 1197.81994628906 1223.28002929688 1378.59997558594 1382.60998535156 1452.41003417969 1516.80004882812 1555.66003417969 1491.13000488281 1613.06994628906 1459.0400390625 1445.40002441406 1353.22998046875 1328.5 1299.68005371094 1308.73999023438 1316.34997558594 1320.23999023438 1340.76000976562 1349.81994628906 1448 1378.88000488281 1378.88000488281 1388.91003417969 1404.91003417969 1413.21997070312 1749.19995117188 1880.5400390625 1964.07995605469 1718.80004882812 2043.52001953125 1970.46997070312 1715.35998535156 1547.06005859375 1538.31994628906 1547.68005371094 1547.68005371094 1698.61999511719 1767.92004394531 2046.33996582031 2308.60009765625 2285.82006835938 2402.4599609375 2595.31005859375 2583.36010742188 2395.28002929688 2255.2900390625 2298.22998046875 2160.76000976562 2090.86010742188 2047.2099609375 1963.71997070312 1947.07995605469 1946 1913.93005371094 1917.84997558594 1961.39001464844 2169.98999023438 2193.21997070312 2142.22998046875 2150.4599609375 2265.3701171875 2210.89990234375 2249.86010742188 2240.7099609375 2268.02001953125 2247.02001953125 2420.92993164062 2659.11010742188 2527.36010742188 2617.03002929688 2480.32006835938 2120.6298828125 1865.19995117188 1830.52001953125 1966.5400390625 1986.07995605469 1845.10998535156 1854.7099609375 1818.7900390625 1818.7900390625 1818.7900390625 1769.73999023438 1741.76000976562 1725.55004882812 1723.48999023438 1864.69995117188 1759.18994140625 1932.59997558594 1882.25 1968.17004394531 1716.11999511719 1748.7099609375 2014.77001953125 2110.580078125 1807.22998046875 1797.88000488281 2130.11010742188 2582.2900390625 2380.05004882812 2101.43994140625 2059.8701171875 1798 1655.5 1611.16003417969 1621.86999511719 1749.92004394531 1889.94995117188 1809.2099609375 1849.36999511719 2008.58996582031 2062.080078125 2100.8798828125 2270.14990234375 2338.84008789062 2469.01000976562 2378.830078125 2040.58996582031 1964.14001464844 1939.27001953125 1927.91003417969 1929.31005859375 1899.98999023438 1835.84997558594 1835.84997558594 1893.48999023438 1956.93005371094 2027.71997070312 2272.3701171875 2386.38989257812 2827.65991210938 2622.42993164062 2509.9599609375 2711.73999023438 2671.8701171875 2986.7099609375 2754.0400390625 2564.32006835938 2457.419921875 2295.93994140625 2176.2099609375 2115.97998046875 2049.3798828125 1983.91003417969 1942.16003417969 1907.4599609375 1895.56005859375 1873.78002929688 1855.26000976562 1831.69995117188 1812.31005859375 1817.58996582031 1828.38000488281 1828.11999511719 1824.01000976562 1827.51000976562 1834.96997070312 1911.57995605469 2046.93005371094 2311.0400390625 2468.1201171875 2630.01000976562 2534.01000976562 2532.48999023438 2343.64990234375 2330.17993164062 2277.580078125 2312.71997070312 2334 2513.72998046875 2661.71997070312 2492.85009765625
1498.7900390625 1327.22998046875 1226.75 1184.56005859375 1184.56005859375 1184.56005859375 1184.56005859375 1270.47998046875 1338.33996582031 1239.66003417969 1211.18005371094 1197.81994628906 1197.81994628906 1252.98999023438 1319.67004394531 1384.60998535156 1363.41003417969 1363.41003417969 1541.93005371094 1541.06005859375 1315.7099609375 1271.88000488281 1276.40002441406 1286.23999023438 1299.68005371094 1315.17004394531 1380.67004394531 1346.81994628906 1363.51000976562 1366.13000488281 1377.91003417969 1377.91003417969 1391.55004882812 1574.68005371094 1561.33996582031 1506.23999023438 1644.60998535156 1866.88000488281 2069.7900390625 1857.10998535156 2106.73999023438 2230.61010742188 2102.78002929688 1672.44995117188 1583.39001464844 1673.14001464844 1547.68005371094 1569.25 1723.94995117188 1882.43005371094 1986.82995605469 2191.07006835938 2348.17993164062 2586.72998046875 2591.830078125 2642.01000976562 2428.43994140625 2482.02001953125 2142.59008789062 2119.90991210938 2043.19995117188 1977.98999023438 1970.13000488281 1953.90002441406 1927.7099609375 1927.7099609375 2033.22998046875 2193.09008789062 2258.36010742188 2316.34008789062 2245.3798828125 2388.5 2330.1298828125 2273.8798828125 2439.6201171875 2396.02001953125 2267.39990234375 2589.15991210938 2634.6201171875 2439.330078125 2343.71997070312 2202.21997070312 2067.80004882812 1924.22998046875 1921.51000976562 2054.02001953125 2109.2900390625 1975.98999023438 2067.07006835938 2069.36010742188 1998.69995117188 1894.84997558594 1758.26000976562 1771.64001464844 1734.5400390625 1720.98999023438 1716.11999511719 1716.11999511719 1734.65002441406 1716.11999511719 1716.11999511719 1716.11999511719 1716.11999511719 1736.67004394531 1825.38000488281 1776.31005859375 1719.65002441406 2204.7099609375 2286.89990234375 2417.09008789062 1994.68005371094 1814.89001464844 1634.85998535156 1621.72998046875 1621.72998046875 1728.10998535156 1838.92004394531 1981.71997070312 1938.83996582031 1926.40002441406 2089.5 2129.19995117188 2142.28002929688 2198.8701171875 2234.38989257812 2348.2099609375 2446.77001953125 2043.77001953125 1921.07995605469 1906.38000488281 1890.01000976562 1881.0400390625 1872.23999023438 1854.25 1851.93005371094 1896.17004394531 1950.39001464844 2024.92004394531 2240.32006835938 2347.92993164062 2637.0400390625 2716.77001953125 2629.63989257812 2967.9599609375 2781.75 2914.52001953125 2840.84008789062 2618.09008789062 2658.75 2381.40991210938 2227.10009765625 2122.96997070312 2055.22998046875 2019.19995117188 1974.97998046875 1936.28002929688 1919.5400390625 1898.91003417969 1878.5 1855.40002441406 1834.43994140625 1832.42004394531 1840.4599609375 1855.25 1836.98999023438 1840.38000488281 1846.40002441406 1934.68005371094 2054.68994140625 2215.34008789062 2459.1201171875 2487.7900390625 2710.57006835938 2867.13989257812 2607.64990234375 2516.28002929688 2392.78002929688 2359.92993164062 2346.28002929688 2450.19995117188 2617.48999023438 2448.05004882812
1680.96997070312 1553.83996582031 1271.31994628906 1210.78002929688 1261.08996582031 1321.11999511719 1488.01000976562 1423.17004394531 1289.25 1296.58996582031 1304.10998535156 1351.47998046875 1197.81994628906 1197.81994628906 1221.51000976562 1221.51000976562 1289.33996582031 1376.89001464844 1331.48999023438 1267.25 1260.30004882812 1269.43994140625 1364.33996582031 1330.9599609375 1414.06994628906 1615.9599609375 1528.69995117188 1616.18005371094 1404.23999023438 1437.22998046875 1483.43005371094 1551.72998046875 1520.15002441406 1827.81005859375 1707.52001953125 1767.01000976562 1665.43994140625 1881.81005859375 2103.88989257812 1937.96997070312 2256.15991210938 2308.51000976562 1944.2900390625 1733.84997558594 1682.17004394531 1921.21997070312 1564.97998046875 1570 1829.5 2189.330078125 2145.7900390625 2317 2306.06005859375 2369.90991210938 2522.98999023438 2557.919921875 2594.01000976562 2554.3701171875 2581.3701171875 2320.55004882812 2086.919921875 2023.18994140625 2022.19995117188 1975.4599609375 1936.85998535156 1936.32995605469 1981.56005859375 2146.6298828125 2321.6201171875 2347.73999023438 2300.47998046875 2482.7099609375 2382.14990234375 2420.34008789062 2504.90991210938 2422.92993164062 2305.35009765625 2589.94995117188 2553.88989257812 2501.96997070312 2501.86010742188 2179.39990234375 1957.28002929688 1957.28002929688 1988.08996582031 2210.82006835938 2182.56005859375 2165.88989257812 2317.80004882812 2180.03002929688 1935.16003417969 1846.52001953125 1829.61999511719 1988.89001464844 1883.43005371094 1769.77001953125 1743.34997558594 1716.11999511719 1716.11999511719 1716.11999511719 1716.11999511719 1716.11999511719 1716.11999511719 1716.11999511719 1712.66003417969 1712.66003417969 1696.89001464844 1891.47998046875 1965.56005859375 2065.60009765625 1998.01000976562 1688 1623.57995605469 1633.08996582031 1669.28002929688 1901.28002929688 1953.18005371094 2107.42993164062 2140.56005859375 2072.98999023438 2072.98999023438 2114.44995117188 2142.21997070312 2182.11010742188 2173.28002929688 2225.7099609375 2436.169921875 2088.5400390625 1909.07995605469 1898.61999511719 1883.73999023438 1879.71997070312 1879.71997070312 1868.66003417969 1878.75 1929.48999023438 1980.47998046875 2044.59997558594 2125.76000976562 2334.080078125 2531.47998046875 2733.15991210938 2715.15991210938 2971.8701171875 2735.81005859375 2691.23999023438 2810.85009765625 2630.13989257812 2445 2242.94995117188 2200.169921875 2123.18994140625 2077.7900390625 2034.93005371094 1989.03002929688 1962.56005859375 1944.06994628906 1926.80004882812 1905.41003417969 1874.77001953125 1853.82995605469 1853.89001464844 1855.19995117188 1880.35998535156 1898.09997558594 1870.5400390625 1859.48999023438 1939.56005859375 2042.90002441406 2149.89990234375 2323.59008789062 2490.38989257812 2732.35009765625 2879.82006835938 2752.68994140625 2657.03002929688 2541.25 2501.38989257812 2474.11010742188 2601.17993164062 2607.080078125 2424.38989257812
1744.21997070312 1456.52001953125 1371.68994140625 1392.39001464844 1661.93994140625 1571.90002441406 1490.15002441406 1330.31994628906 1359.65002441406 1429.9599609375 1393.4599609375 1478.83996582031 1352.73999023438 1344.27001953125 1302.5400390625 1272.64001464844 1227.39001464844 1234.56994628906 1260.30004882812 1260.30004882812 1260.30004882812 1389.72998046875 1636.83996582031 1665.81005859375 1641.76000976562 2014.7900390625 1768 1734 1471.63000488281 1471.63000488281 1864.86999511719 1918.06994628906 1637.47998046875 1889.66003417969 2074.96997070312 2040.40002441406 1830.82995605469 1983.94995117188 2108.22998046875 2195.55004882812 2203.28002929688 2073.1298828125 1845.69995117188 1771.76000976562 1853.27001953125 2069.85009765625 1581.41003417969 1571.68994140625 1733.47998046875 1827.57995605469 1819.06994628906 1872.41003417969 2016.09997558594 2134.73999023438 2261.28002929688 2363.59008789062 2590.8798828125 2736.43994140625 2704.0400390625 2349.59008789062 2245.80004882812 2160.6201171875 2108.03002929688 1987.60998535156 1959.77001953125 1946.68005371094 1970.81005859375 2057.32006835938 2279.22998046875 2389.2099609375 2432.86010742188 2562.03002929688 2471.2099609375 2555.72998046875 2621.94995117188 2402.69995117188 2435.830078125 2671.5 2695.4599609375 2502.71997070312 2416.1201171875 2094.419921875 1957.28002929688 2119.23999023438 2201.7900390625 2256.26000976562 2302.10009765625 2367.90991210938 2331.5 2139.8798828125 1882.80004882812 1904.07995605469 2012.9599609375 2129.55004882812 2096.25 1816.18005371094 1883.08996582031 1809.9599609375 1905.73999023438 1776.73999023438 1741.19995117188 1716.11999511719 1716.11999511719 1725.13000488281 2031.98999023438 1712.66003417969 1678.2099609375 1672.86999511719 1672.86999511719 1695.77001953125 1724.92004394531 1640.46997070312 1642.66003417969 1728.32995605469 1754.98999023438 1974.7900390625 2035.84997558594 2154.580078125 2265.4599609375 2115.830078125 2167.330078125 2176.419921875 2186.73999023438 2116.6298828125 2113.35009765625 2153.14990234375 2168.7900390625 2126.8798828125 1970.10998535156 1916.31005859375 1905.07995605469 1891.35998535156 1888.63000488281 1886.06005859375 1915.71997070312 1944.72998046875 2000.16003417969 2067.82006835938 2143.32006835938 2231.3701171875 2431.1298828125 2807.81005859375 2827.82006835938 2857.34008789062 2741.60009765625 2614.35009765625 2799.13989257812 2628.080078125 2410.22998046875 2242.78002929688 2327.05004882812 2217.80004882812 2114.5400390625 2047.51000976562 2002.11999511719 1988.08996582031 1968.28002929688 1949.18005371094 1917.96997070312 1887.52001953125 1877.65002441406 1879.05004882812 1876.93005371094 1885.53002929688 1937.81994628906 1894.84997558594 1875.90002441406 1936.35998535156 2022.42004394531 2072.02001953125 2286.94995117188 2406.0400390625 2630.07006835938 2628.89990234375 2842.51000976562 2855.2099609375 2656.11010742188 2624.10009765625 2568.65991210938 2654.23999023438 2526.15991210938 2423.02001953125
2066.919921875 1724.48999023438 1620.81005859375 1721.27001953125 1839.33996582031 1596.26000976562 1525.01000976562 1395.05004882812 1698.81994628906 1602.91003417969 1613.92004394531 1511.91003417969 1489.0400390625 1550.31994628906 1380.57995605469 1502.21997070312 1374.33996582031 1377.83996582031 1298.5400390625 1374.40002441406 1478.13000488281 1410.96997070312 1537.94995117188 1892.96997070312 1904.58996582031 2232.080078125 2051.39990234375 1693.23999023438 1473.56994628906 1601.67004394531 1882.67004394531 1970.41003417969 1827.05004882812 1888.17004394531 2274.59008789062 2046.93994140625 2016.7099609375 2241.11010742188 2359.94995117188 2307.36010742188 2199.88989257812 2063.09008789062 1883.67004394531 1968.56994628906 2043.32995605469 1952.60998535156 1586.18994140625 1586.18994140625 1625.13000488281 1677.56005859375 1694.01000976562 1794.78002929688 2265.09008789062 2560.98999023438 2541.31005859375 2395.72998046875 2614.07006835938 2868.97998046875 2511.89990234375 2352.34008789062 2259.76000976562 2173.71997070312 2101.4599609375 2056.82006835938 2020.40002441406 1985.5 1985.5 1985.5 2075.23999023438 2156.97998046875 2290.52001953125 2581.6298828125 2585.080078125 2653.09008789062 2638.31005859375 2602.57006835938 2556.6298828125 2523.53002929688 2544.59008789062 2385.330078125 2196.11010742188 1986.53002929688 1957.44995117188 2238.78002929688 2596.53002929688 2480.59008789062 2556.21997070312 2349.43994140625 2169.86010742188 2018.72998046875 1882.80004882812 2108.1201171875 2216.09008789062 2158.01000976562 1988.22998046875 1951.81994628906 2126.34008789062 1991.76000976562 2051.40991210938 1804.07995605469 1920.68994140625 1965.38000488281 1844.89001464844 1831.85998535156 2089.93994140625 2134 1960.71997070312 1842.17004394531 1684.07995605469 1653.73999023438 1640.46997070312 1640.46997070312 1647.13000488281 1673.63000488281 1850.61999511719 1903.86999511719 2067.72998046875 2145.36010742188 2083.05004882812 2016.68994140625 2044.86999511719 2125.7099609375 2226.39990234375 2091.7900390625 2071.27001953125 2099.25 2127.8701171875 2126.73999023438 2068.77001953125 1981.23999023438 1922.53002929688 1899.5400390625 1904.80004882812 1904.2900390625 1929.96997070312 1960.72998046875 2001.2099609375 2065.92993164062 2127.06005859375 2219.01000976562 2355.78002929688 2613.830078125 2897.5400390625 2818.46997070312 2697.81005859375 2551.23999023438 2511.81005859375 2662.51000976562 2501.92993164062 2576.94995117188 2729.17993164062 2436.830078125 2206.669921875 2049.13989257812 2026.56005859375 2008.40002441406 1984.27001953125 1954.73999023438 1923.17004394531 1904.56994628906 1901.52001953125 1902.92004394531 1905.2099609375 1905.64001464844 1908.52001953125 1896.32995605469 1883.56005859375 1887.98999023438 1929.7099609375 1941.81994628906 2036.35998535156 2227.21997070312 2421.7900390625 2486.69995117188 2734.75 2799.11010742188 2856.27001953125 2767.34008789062 2669.80004882812 2561.94995117188 2460.3701171875 2387.31005859375
2021.81994628906 2061.6298828125 1999.43005371094 1986.59997558594 1944.5400390625 1791.36999511719 1483.38000488281 1470.35998535156 1698.15002441406 1686.43994140625 1723.01000976562 1787.35998535156 1669.53002929688 1737.08996582031 1513.66003417969 1575.10998535156 1542.2900390625 1436.68005371094 1386.43994140625 1540.85998535156 1699.80004882812 1632.53002929688 1615.91003417969 1727.16003417969 1962.02001953125 2216.919921875 2023.68005371094 1699.53002929688 1536.18005371094 1540.18994140625 1872.06005859375 1992.48999023438 2080.57006835938 2146.1298828125 2246.80004882812 2222.94995117188 2302.19995117188 2265.8798828125 2223.82006835938 2364.23999023438 2236.89990234375 2069.84008789062 1980.36999511719 2109.51000976562 2227.1298828125 1785.97998046875 1590.31994628906 1591.59997558594 1844.43994140625 2105.94995117188 1963.32995605469 1811.96997070312 2023.0400390625 2514.88989257812 2688.88989257812 2517.17993164062 2785.78002929688 2846.94995117188 2489.76000976562 2177.67993164062 2095.830078125 2070.5 2054.5 2043.43005371094 1994.7900390625 1985.5 2012.53002929688 1985.5 2006.31994628906 2110.84008789062 2273.71997070312 2498.830078125 2723.42993164062 2700.36010742188 2623.14990234375 2490.60009765625 2406.51000976562 2351.39990234375 2302.13989257812 2252.71997070312 2136.22998046875 2010 2002.35998535156 2226.53002929688 2418.69995117188 2622.03002929688 2285.84008789062 2181.18994140625 2122.580078125 1925.11999511719 1901.0400390625 2113.52001953125 2315.19995117188 2095.65991210938 2047.84997558594 2074.64990234375 2234.419921875 2134.59008789062 1958.02001953125 1862.52001953125 2005.93005371094 1986.93994140625 1967.93005371094 2038.61999511719 2185.59008789062 2363.01000976562 2463.15991210938 2271.38989257812 2005.43994140625 1826.31005859375 1762.81994628906 1757.90002441406 1655.51000976562 1659.57995605469 1829.90002441406 1971.36999511719 2164.18994140625 2081.0400390625 1960.21997070312 1954.14001464844 2070.63989257812 2017.36999511719 2074.81005859375 2058.2900390625 2058.2900390625 2107.3798828125 2173.8701171875 2188.86010742188 2200.02001953125 2090.32006835938 1958.97998046875 1921.30004882812 1919.16003417969 1920.11999511719 1938.86999511719 1976.02001953125 2013.7099609375 2049.68994140625 2091.71997070312 2162.64990234375 2354.84008789062 2608.85009765625 2919.78002929688 2716.94995117188 2725.38989257812 2535.01000976562 2436.97998046875 2376.72998046875 2384.67993164062 2325.080078125 2315.82006835938 2481.1201171875 2179.10009765625 2073.5 2044.18994140625 2024.07995605469 1993.71997070312 1943.65002441406 1934.43994140625 1930.5400390625 1927.68994140625 1927.2099609375 1928.31005859375 1920.31994628906 1927.80004882812 1913.55004882812 1896.06994628906 1892.84997558594 1901.56994628906 1911.67004394531 1961.38000488281 2069.4599609375 2204.96997070312 2293.419921875 2471.18994140625 2654.55004882812 2819.65991210938 2822.080078125 2685.09008789062 2529.93994140625 2484.38989257812 2293.97998046875
2043.59997558594 2043.59997558594 2076.51000976562 1828.33996582031 1778.34997558594 1683.46997070312 1573.25 1704.83996582031 1811.9599609375 1768.77001953125 1779.73999023438 1903.44995117188 1943.27001953125 1859.58996582031 1728.96997070312 1694.22998046875 1720.57995605469 1593.5 1547.93994140625 1656.56005859375 1955.39001464844 2037.03002929688 1929.40002441406 1810.69995117188 1898.31994628906 2074.64990234375 2157.830078125 2101.57006835938 1777.96997070312 1590.88000488281 1590.88000488281 1857.38000488281 1855.68005371094 1975.5 2150.63989257812 1917.34997558594 2223.2099609375 2351.169921875 2157.05004882812 2132.3701171875 2314.22998046875 2311.78002929688 2164.36010742188 2188.18994140625 1959.2099609375 1632.71997070312 1594.2900390625 1704.59997558594 1773.72998046875 1878.71997070312 2349.22998046875 1887.71997070312 1898.32995605469 2218.30004882812 2778.67993164062 2708.1298828125 2720.11010742188 2531.5 2270.43994140625 2125.40991210938 2092.3701171875 2085.9599609375 2116.14990234375 1999.30004882812 1999.30004882812 1999.30004882812 2014.31994628906 1985.5 1986.5400390625 2084.11010742188 2225.03002929688 2447.25 2684.9599609375 2660.63989257812 2653.43994140625 2548.56005859375 2456.8701171875 2412.68994140625 2393.21997070312 2235.63989257812 2097.8798828125 2049.86010742188 2187.60009765625 2329.67993164062 2380.94995117188 2642.3701171875 2385.42993164062 2121.35009765625 1982.81005859375 1960.43994140625 2007.76000976562 2124.67993164062 2346.55004882812 2234.8701171875 2203.46997070312 2340.07006835938 2224.78002929688 2120.90991210938 2024.22998046875 2019.2900390625 2207.44995117188 2061.31005859375 2052.92993164062 2276.7099609375 2312.92993164062 2458.830078125 2389.34008789062 2090.92993164062 1894.43005371094 1773.64001464844 1763.9599609375 1783 1675.51000976562 1670.42004394531 1881.18994140625 1952.02001953125 1961.96997070312 1951.07995605469 1883.58996582031 1953.73999023438 1914.96997070312 1961.59997558594 2024.31005859375 2087.330078125 2122.53002929688 2109.8798828125 2147.69995117188 2266.9599609375 2263.46997070312 2239.3798828125 2063.2900390625 1955.77001953125 1944.32995605469 1937.81994628906 1946.60998535156 1986.88000488281 2025.25 2066.68994140625 2109.46997070312 2175.97998046875 2263.1298828125 2653.84008789062 2892.080078125 2692.28002929688 2572.6298828125 2454.13989257812 2365.96997070312 2312.9599609375 2279.98999023438 2235.09008789062 2187.25 2173.65991210938 2122.330078125 2080.75 2064.76000976562 2047.5400390625 2024.89001464844 1976.57995605469 1954.98999023438 1959.25 1953.67004394531 1951.81994628906 1952.17004394531 1943.42004394531 1947.0400390625 1927.98999023438 1908.68005371094 1909.38000488281 1908.98999023438 1919.69995117188 1951.43005371094 2010.35998535156 2106.67993164062 2202.68994140625 2306.2900390625 2393.60009765625 2509.2099609375 2622.64990234375 2670.03002929688 2736.59008789062 2497.0400390625 2363.31005859375
2119.6298828125 2068.77001953125 2075.60009765625 1828.33996582031 1748.2099609375 1683.46997070312 1806.90002441406 1811.09997558594 1761.11999511719 1719.11999511719 1791.92004394531 1904.83996582031 1897.59997558594 1855.80004882812 1796.39001464844 1827.31005859375 1904.86999511719 1928.28002929688 1797.57995605469 1943.06005859375 2087.86010742188 2024.55004882812 2086.919921875 2037.21997070312 1954.83996582031 1959.08996582031 2004.73999023438 2196.43994140625 2045.98999023438 1718.93994140625 1610.56994628906 1661.75 1693.90002441406 1823.97998046875 1774.91003417969 1798.41003417969 1837.46997070312 1922.25 2001.82995605469 2098.77001953125 2262.59008789062 2158.78002929688 2368.63989257812 2307.42993164062 1916.53002929688 1615.10998535156 1597.91003417969 1822.34997558594 1912.46997070312 1858.36999511719 2084.81005859375 2135.47998046875 1958.03002929688 1993.18994140625 2324.27001953125 2565.28002929688 2464.56005859375 2399.23999023438 2301.94995117188 2249.69995117188 2312.40991210938 2260.92993164062 2111.4599609375 1999.30004882812 1999.30004882812 2047.06994628906 2021.69995117188 1985.5 1997.2099609375 2127.01000976562 2324.32006835938 2571.0400390625 2551.27001953125 2619.46997070312 2611.330078125 2555.51000976562 2538.830078125 2425.57006835938 2332.09008789062 2114.22998046875 2109.11010742188 2198.669921875 2409.52001953125 2633.0400390625 2556.5400390625 2655.85009765625 2515.34008789062 2083.71997070312 2003.67004394531 2049.69995117188 2133.13989257812 2134.14990234375 2342.53002929688 2376.64990234375 2376.11010742188 2343.830078125 2285.59008789062 2135.86010742188 2199.43994140625 2154.0400390625 2247.71997070312 2139.27001953125 2192.40991210938 2338.13989257812 2300.09008789062 2490.01000976562 2372.78002929688 2156.6298828125 1942.32995605469 1817.82995605469 1894.21997070312 1832.4599609375 1692.7099609375 1677.5400390625 1727.10998535156 1891.80004882812 1854.18994140625 1854.18994140625 1867.09997558594 1908.60998535156 1911.30004882812 1974.32995605469 2101.32006835938 2129.01000976562 2237.64990234375 2179.18994140625 2189.36010742188 2247.38989257812 2329.05004882812 2339.02001953125 2172.22998046875 2002.82995605469 1976.93005371094 1956.15002441406 1964.58996582031 2013.25 2038.2900390625 2089.25 2122.55004882812 2165.32006835938 2229.9599609375 2375.30004882812 2701.59008789062 2747.30004882812 2784.93994140625 2777.88989257812 2496.38989257812 2375.05004882812 2320.13989257812 2380.98999023438 2216.6298828125 2150.080078125 2119.18994140625 2111.1298828125 2116.76000976562 2095.36010742188 2043.71997070312 1999.83996582031 1981.35998535156 1981.9599609375 1978.82995605469 1971.9599609375 1972.67004394531 1971.28002929688 1966.86999511719 1990.11999511719 1935.9599609375 1936.22998046875 1928.14001464844 1939.5 1969.43994140625 2013.65002441406 2067.06005859375 2138.13989257812 2177.2099609375 2263.10009765625 2344.63989257812 2367.01000976562 2607.51000976562 2762.76000976562 2639.72998046875 2403.14990234375
